# .PCD v0.7 - Point Cloud Data file format
VERSION 0.7
FIELDS x y z intensity
SIZE 4 4 4 4
TYPE F F F F
COUNT 1 1 1 1
WIDTH 1403
HEIGHT 1
VIEWPOINT 0 0 0 1 0 0 0
POINTS 1403
DATA ascii
-1.502829 2.0699861 -1.426211 155
-2.1820121 3.02321 0.79327202 95
-2.180635 3.021301 0.70297199 95
-2.1779311 3.017555 0.61381799 75
-2.176311 3.01531 0.52567297 95
-2.1711791 3.008199 0.43691999 95
-2.188139 3.0316989 0.35225201 95
-2.180578 3.0212231 0.264561 95
-2.1858699 3.0285549 0.17752101 95
-2.178266 3.018019 0.090805002 95
-2.1847 3.0269339 0.0041359998 75
-2.1630399 2.996923 -0.081554003 75
-2.181133 3.021992 -0.16980501 115
-2.193321 3.0388789 -0.25883999 95
-1.95775 2.712491 -0.30039099 175
-1.943795 2.693156 -0.37598199 195
-1.928845 2.6724429 -0.45067799 195
-1.911705 2.648695 -0.52464098 155
-1.816962 2.517427 -0.569107 255
-1.760812 2.43963 -0.62208402 195
-1.569402 2.1744289 -0.61120802 235
-1.471682 2.039037 -0.63026202 195
-1.525179 2.113158 -0.72239298 115
-2.1878369 3.03128 -1.172377 95
-2.1667891 3.0021181 -1.256754 115
-2.195873 3.0424149 -1.374336 155
-2.0974569 2.9060581 -1.406178 175
-1.974975 2.736357 -1.41168 175
-1.8514121 2.5651591 -1.4066041 175
-1.76138 2.4404171 -1.420926 175
-1.663893 2.3053479 -1.420893 175
-1.57454 2.1815491 -1.420838 155
-1.497043 2.0741749 -1.426211 155
-2.1793749 3.039634 0.79549402 95
-2.189532 3.0537989 0.70815998 95
-2.1730559 3.0308211 0.61493099 75
-2.1760869 3.035048 0.52753198 95
-2.181443 3.0425179 0.440079 95
-2.1902289 3.0547719 0.35364699 95
-2.179225 3.0394239 0.26521301 95
-2.183336 3.045157 0.177799 95
-2.1769321 3.0362251 0.090805002 95
-2.174015 3.0321569 0.0041820002 75
-2.1687479 3.024811 -0.082764998 95
-2.1902289 3.0547719 -0.17203701 115
-2.1895649 3.0538459 -0.25976899 95
-1.952691 2.7234709 -0.30108699 175
-1.935324 2.699249 -0.37598199 195
-1.92389 2.683301 -0.45164999 195
-1.910246 2.6642721 -0.52686203 155
-1.801065 2.5119939 -0.56619602 255
-1.761077 2.4562211 -0.62531197 195
-1.605404 2.2391 -0.63045502 215
-1.464149 2.042088 -0.62971097 195
-1.52187 2.1225941 -0.72417998 115
-2.173887 3.0319791 -1.169816 95
-2.1639171 3.018074 -1.260859 115
-2.1873901 3.050812 -1.3750629 155
-2.091543 2.9171319 -1.4084899 175
-1.966369 2.742548 -1.41168 175
-1.844398 2.5724311 -1.40746 175
-1.749539 2.440129 -1.417335 175
-1.656642 2.310564 -1.420893 175
-1.566663 2.1850669 -1.419858 155
-1.489517 2.0774701 -1.42519 155
-2.174376 3.0528691 0.79697502 95
-2.1867969 3.070307 0.710105 95
-2.166971 3.0424719 0.61576599 75
-2.1699989 3.0467229 0.528229 95
-2.1788061 3.059088 0.44119301 95
-2.188724 3.0730131 0.354624 95
-2.177778 3.057646 0.26586601 95
-2.1818781 3.063401 0.178124 95
-2.175504 3.0544529 0.090805002 95
-2.171438 3.048744 0.0039039999 75
-2.177778 3.057646 -0.084256001 95
-2.187567 3.071388 -0.172874 115
-2.1857369 3.06882 -0.26069799 95
-1.942973 2.7279739 -0.30085501 175
-1.930282 2.710155 -0.37681699 195
-1.918885 2.694155 -0.45262301 195
-1.903007 2.6718609 -0.527233 155
-1.8033791 2.531981 -0.569938 255
-1.7522219 2.460156 -0.62485099 195
-1.597239 2.2425561 -0.62994897 195
-1.458841 2.048243 -0.63026202 195
-1.51741 2.130475 -0.72537202 115
-2.1610529 3.034163 -1.167895 95
-2.157696 3.0294499 -1.262911 115
-2.170229 3.0470469 -1.369971 155
-2.0812981 2.9221849 -1.407719 175
-1.955623 2.7457349 -1.410053 175
-1.839453 2.5826299 -1.410027 175
-1.744975 2.44998 -1.420028 175
-1.6514241 2.318634 -1.422771 175
-1.555745 2.1842971 -1.41594 155
-1.483981 2.08354 -1.426211 155
-2.1754639 3.071382 0.79993802 95
-2.1867361 3.0872951 0.71237499 95
-2.1681571 3.061064 0.617993 75
-2.1700521 3.063741 0.52985501 95
-2.1788459 3.0761571 0.442494 95
-2.1864369 3.086874 0.355322 95
-2.1743851 3.0698581 0.266238 95
-2.180784 3.0788929 0.17840301 95
-2.1755919 3.0715621 0.090805002 95
-2.1726949 3.067472 0.0035319999 75
-2.17554 3.0714879 -0.084720999 95
-2.1898971 3.091758 -0.17412999 115
-2.186903 3.087532 -0.26218399 95
-1.9392689 2.737915 -0.301552 175
-1.922035 2.713583 -0.37653801 195
-1.909544 2.6959479 -0.451974 195
-1.896005 2.6768329 -0.527233 155
-1.794482 2.5335009 -0.569107 255
-1.710905 2.415504 -0.61055601 215
-1.588007 2.241993 -0.628429 195
-1.464586 2.067744 -0.63577503 175
-1.512931 2.135998 -0.725968 115
-2.149817 3.035172 -1.165974 95
-2.144326 3.02742 -1.25949 115
-2.1514771 3.0375149 -1.3626961 155
-2.074707 2.9291301 -1.4084899 175
-1.9505399 2.753828 -1.41168 175
-1.830596 2.584487 -1.4083149 175
-1.7364891 2.451623 -1.418233 175
-1.643307 2.3200669 -1.420893 175
-1.553044 2.192631 -1.418879 155
-1.481504 2.09163 -1.429271 155
-2.176523 3.092288 0.80326998 95
-2.1866541 3.1066811 0.71496898 95
-2.1738839 3.0885379 0.621611 95
-2.170099 3.0831621 0.53171301 95
-2.1800251 3.0972641 0.444166 95
-2.185307 3.104768 0.356298 95
-2.175616 3.0910001 0.267077 95
-2.180846 3.0984299 0.178774 95
-2.1733761 3.087817 0.090805002 95
-2.1704891 3.083715 0.0032540001 75
-2.1744659 3.089366 -0.085373998 95
-2.186455 3.1063991 -0.17482799 115
-2.1846099 3.1037769 -0.26329899 95
-1.929994 2.7420321 -0.30131999 175
-1.915115 2.7208941 -0.37681699 195
-1.90608 2.7080569 -0.453271 195
-1.893711 2.6904831 -0.52908403 155
-1.7982171 2.554811 -0.57326502 255
-1.702611 2.418978 -0.61009502 215
-1.582462 2.2482769 -0.62893599 195
-1.450699 2.061075 -0.63191599 175
-1.505487 2.138916 -0.72537202 115
-2.13644 3.0353401 -1.163413 95
-2.1320889 3.0291581 -1.2574379 115
-2.1145749 3.0042751 -1.3437819 155
-2.06707 2.9367819 -1.409261 175
-1.938154 2.7536271 -1.408426 175
-1.82292 2.5899069 -1.4083149 175
-1.730235 2.458226 -1.41913 175
-1.635399 2.323488 -1.419955 175
-1.5455281 2.1958041 -1.417899 155
-1.471331 2.090389 -1.42519 155
-2.1751821 3.107636 0.80549198 95
-2.186435 3.123713 0.71723902 95
-2.1850979 3.121803 0.62634301 95
-2.171133 3.101851 0.533571 95
-2.177619 3.1111169 0.445095 95
-2.184036 3.120285 0.357135 95
-2.173245 3.1048679 0.26754299 95
-2.180753 3.1155961 0.17909899 95
-2.175606 3.108243 0.090805002 95
-2.1738739 3.105767 0.0027900001 75
-2.176682 3.1097779 -0.086212002 95
-2.184036 3.120285 -0.17552499 115
-2.1821859 3.1176431 -0.26422799 95
-1.925086 2.75033 -0.30178401 175
-1.910257 2.7291429 -0.37737301 195
-1.900116 2.7146549 -0.453596 195
-1.884407 2.6922109 -0.52834398 135
-1.781427 2.5450859 -0.56952298 255
-1.6973881 2.4250219 -0.61055601 215
-1.5732419 2.2476571 -0.62741601 195
-1.449708 2.071166 -0.634121 175
-1.506451 2.152235 -0.72894597 115
-2.1230531 3.0331609 -1.160212 95
-2.120918 3.0301111 -1.255386 115
-2.1248641 3.035748 -1.356149 155
-2.055141 2.936136 -1.406178 175
-1.9330339 2.7616849 -1.410053 175
-1.815096 2.593189 -1.40746 175
-1.722769 2.461283 -1.418233 175
-1.632349 2.3321021 -1.422771 175
-1.538774 2.1984141 -1.416919 155
-1.464867 2.092824 -1.42417 155
-2.1749301 3.1269851 0.80845499 95
-2.188426 3.1463881 0.72048098 95
-2.1814799 3.1364019 0.62773502 95
-2.170994 3.121326 0.53543001 95
-2.177475 3.1306429 0.44658101 95
-2.181603 3.136579 0.357972 95
-2.1731491 3.124424 0.26828799 95
-2.179491 3.133543 0.179424 95
-2.169801 3.1196101 0.090805002 95
-2.1703579 3.1204109 0.0025579999 75
-2.1742899 3.1260641 -0.086770996 95
-2.1850209 3.1414931 -0.176781 115
-2.1842971 3.1404519 -0.26608601 95
-1.919186 2.7592909 -0.30224901 175
-1.905544 2.739677 -0.37820801 195
-1.89318 2.7219009 -0.45392001 195
-1.873044 2.69295 -0.527233 135
-1.779453 2.5583911 -0.57160199 255
-1.699075 2.4428289 -0.614245 215
-1.568776 2.255492 -0.628429 195
-1.446849 2.080194 -0.63577503 155
-1.498969 2.155128 -0.728351 115
-2.1097169 3.0332251 -1.1576509 95
-2.10548 3.027133 -1.251282 115
-2.117975 3.0450981 -1.357604 155
-2.0516889 2.949796 -1.410032 175
-1.923788 2.765908 -1.40924 175
-1.810491 2.6030159 -1.410027 175
-1.714438 2.4649169 -1.417335 175
-1.621389 2.331136 -1.419016 175
-1.5352319 2.2072639 -1.419858 155
-1.46258 2.1028111 -1.428251 155
-2.172348 3.1431251 0.81067598 95
-2.185813 3.1626079 0.72242701 95
-2.1834249 3.159153 0.63051802 95
-2.170759 3.1408269 0.53728801 95
-2.1783659 3.151834 0.44825301 95
-2.1836309 3.159451 0.35936701 95
-2.1706841 3.1407189 0.26884699 95
-2.1804161 3.154799 0.179842 95
-2.175318 3.147423 0.090805002 95
-2.1724579 3.143285 0.0020930001 75
-2.1718199 3.1423621 -0.087329999 95
-2.182497 3.15781 -0.177618 115
-2.184027 3.1600239 -0.26757199 95
-1.91212 2.766608 -0.302481 175
-1.896281 2.74369 -0.37792999 195
-1.886218 2.72913 -0.45424399 195
-1.868398 2.703346 -0.52834398 135
-1.778527 2.5733149 -0.57409698 255
-1.6951391 2.452662 -0.61562902 215
-1.562077 2.2601371 -0.628429 195
-1.435205 2.0765691 -0.63301897 155
-1.492568 2.1595659 -0.728351 115
-2.0963991 3.033236 -1.15509 95
-2.0954199 3.031821 -1.250598 115
-2.106812 3.0483029 -1.356149 155
-2.0408289 2.9528339 -1.4084899 175
-1.916612 2.7731071 -1.410053 175
-1.800704 2.605402 -1.4083149 175
-1.707117 2.4699931 -1.417335 175
-1.618481 2.341748 -1.422771 175
-1.527684 2.2103751 -1.418879 155
-1.452422 2.10148 -1.42417 155
-2.1724651 3.1621389 0.81363899 95
-2.181443 3.1752059 0.72372299 95
-2.181324 3.1750331 0.63218802 95
-2.1698539 3.1583381 0.53891402 95
-2.176322 3.167753 0.449368 95
-2.1838379 3.1786921 0.360484 95
-2.17435 3.164881 0.26987201 95
-2.177258 3.169116 0.18007401 95
-2.172183 3.161727 0.090805002 95
-2.169333 3.1575789 0.001861 75
-2.173218 3.1632349 -0.088169001 95
-2.1838379 3.1786921 -0.178874 115
-2.1819601 3.1759591 -0.26868701 95
-1.908886 2.778486 -0.30340999 175
-1.894219 2.7571361 -0.37932199 195
-1.880824 2.7376399 -0.45489299 195
-1.859728 2.706933 -0.527973 135
-1.78352 2.5960081 -0.57867098 255
-1.686079 2.4541781 -0.61470598 215
-1.553568 2.261301 -0.62741601 195
-1.431578 2.0837381 -0.634121 155
-1.487613 2.1652989 -0.72894597 115
-2.0857739 3.035955 -1.15381 95
-2.081625 3.0299151 -1.247178 115
-2.0930171 3.0464971 -1.352511 155
-2.0325749 2.9585221 -1.4084899 175
-1.91093 2.78146 -1.41168 175
-1.795469 2.6134 -1.410027 175
-1.700213 2.474751 -1.417335 175
-1.610936 2.3448019 -1.421832 175
-1.520519 2.213196 -1.417899 155
-1.451419 2.112617 -1.429271 155
-2.1719389 3.1815569 0.81660098 95
-2.1809139 3.194705 0.72631699 95
-2.1819429 3.1962121 0.63469398 95
-2.1671929 3.1746061 0.540308 95
-2.1781411 3.1906421 0.451226 95
-2.1833961 3.1983399 0.36160001 95
-2.1705821 3.179569 0.270338 95
-2.1791191 3.192075 0.180538 95
-2.17294 3.1830239 0.090805002 95
-2.168973 3.177213 0.0014900001 75
-2.1705821 3.179569 -0.088728003 95
-2.1833961 3.1983399 -0.17998999 115
-2.181509 3.195576 -0.27017301 95
-1.899514 2.7824969 -0.30317801 175
-1.887146 2.76438 -0.37959999 195
-1.873806 2.744838 -0.455217 195
-1.855013 2.717309 -0.52908403 135
-1.7802221 2.6077509 -0.58033401 255
-1.698541 2.488101 -0.62300599 215
-1.547943 2.267498 -0.62792301 195
-1.428641 2.0927401 -0.63577503 155
-1.482258 2.1712799 -0.72954202 115
-2.0714159 3.034306 -1.150609 95
-2.069447 3.0314209 -1.245126 115
-2.080817 3.0480781 -1.350329 155
-2.0217071 2.9614911 -1.406949 175
-1.898548 2.7810819 -1.408426 175
-1.78363 2.6127441 -1.4066041 175
-1.695886 2.4842119 -1.420028 175
-1.604967 2.3510301 -1.422771 175
-1.514928 2.219137 -1.418879 155
-1.442235 2.1126521 -1.426211 155
-2.175729 3.207505 0.82104498 95
-2.1869359 3.2240269 0.73085701 95
-2.181345 3.2157841 0.63691998 95
-2.1711459 3.2007489 0.54309601 95
-2.178725 3.2119229 0.452898 95
-2.1862161 3.222966 0.363134 95
-2.1768391 3.209142 0.271642 95
-2.17974 3.213419 0.18095601 95
-2.17696 3.2093191 0.090805002 95
-2.1673939 3.1952169 0.001165 75
-2.1745961 3.2058351 -0.089846 95
-2.187336 3.224617 -0.181664 115
-2.183197 3.2185149 -0.27203101 95
-1.89571 2.7946961 -0.30410701 175
-1.880048 2.771606 -0.37987801 195
-1.868977 2.755285 -0.45618999 195
-1.851356 2.7293069 -0.53056502 135
-1.769182 2.608165 -0.57908601 255
-1.697706 2.502794 -0.62577301 215
-1.539036 2.2688789 -0.62690997 195
-1.420267 2.0937879 -0.634673 135
-1.4790241 2.180409 -0.73132902 115
-2.060276 3.037302 -1.149328 95
-2.0583329 3.0344379 -1.243758 115
-2.0686271 3.049613 -1.348147 155
-2.013947 2.9690039 -1.407719 175
-1.8923399 2.789727 -1.410053 175
-1.77587 2.6180251 -1.4066041 175
-1.686501 2.486275 -1.418233 175
-1.59501 2.351398 -1.419955 175
-1.50638 2.220737 -1.416919 155
-1.436926 2.118346 -1.427231 155
-2.1744549 3.2249761 0.82363701 95
-2.1757181 3.2268491 0.73020798 75
-2.177892 3.2300739 0.63831198 75
-2.1755259 3.2265639 0.545883 95
-2.167521 3.2146921 0.452526 75
-2.1794381 3.232367 0.36341301 75
-2.1756871 3.226804 0.27229401 95
-2.183054 3.2377291 0.181466 95
-2.1791699 3.2319691 0.090805002 95
-2.1729939 3.2228091 0.00056100002 75
-2.1712201 3.2201779 -0.090310998 75
-2.1794381 3.232367 -0.181803 95
-2.1875601 3.2444119 -0.27426001 95
-1.887899 2.799979 -0.30410701 175
-1.8745151 2.7801299 -0.38043499 195
-1.867895 2.7703121 -0.45813501 175
-1.845924 2.737726 -0.53130603 135
-1.764079 2.616339 -0.57991803 255
-1.68527 2.4994569 -0.62346798 195
-1.526204 2.2635419 -0.62387103 195
-1.4122649 2.094558 -0.63357002 135
-1.47293 2.18453 -0.73132902 115
-2.04649 3.0351889 -1.146127 95
-2.0456491 3.033941 -1.241021 115
-2.056978 3.0507441 -1.345964 155
-2.00668 2.976146 -1.4084899 175
-1.88352 2.7934849 -1.40924 175
-1.771584 2.62747 -1.409171 175
-1.679551 2.4909749 -1.418233 175
-1.590412 2.3587711 -1.421832 175
-1.504071 2.2307169 -1.420838 155
-1.4281189 2.1180711 -1.42417 155
-2.158875 3.2212391 0.82141501 95
-2.152415 3.2116001 0.72599298 75
-2.152324 3.2114649 0.63413697 75
-2.158766 3.221076 0.54425699 95
-2.141906 3.19592 0.44973901 75
-2.1537421 3.2135811 0.361321 75
-2.163331 3.2278881 0.27201501 95
-2.168438 3.235508 0.181234 95
-2.163455 3.2280729 0.090805002 95
-2.1617589 3.225543 0.00065399997 75
-2.1488719 3.2063141 -0.089193001 75
-2.1559639 3.2168951 -0.17998999 95
-2.171839 3.2405829 -0.273146 95
-1.8833899 2.81019 -0.304804 175
-1.867847 2.786999 -0.38071299 195
-1.852461 2.7640409 -0.455865 175
-1.8404599 2.746135 -0.53204697 135
-1.750231 2.611505 -0.57742298 255
-1.643613 2.4524209 -0.60871202 175
-1.513414 2.258152 -0.62083203 195
-1.407481 2.10009 -0.634121 135
-1.467887 2.1902211 -0.73192501 115
-2.033787 3.034596 -1.143566 95
-2.03089 3.0302739 -1.236917 115
-2.044302 3.0502861 -1.3430541 155
-1.996307 2.978673 -1.406949 175
-1.8777471 2.80177 -1.410867 175
-1.76122 2.627902 -1.4066041 175
-1.674579 2.498625 -1.420028 175
-1.583819 2.363203 -1.421832 175
-1.495895 2.232012 -1.418879 155
-1.425072 2.126338 -1.427231 155
-2.1411209 3.216553 0.81882298 95
-2.1379399 3.2117741 0.72469598 75
-2.144419 3.221508 0.63469398 75
-2.143132 3.219574 0.54309601 95
-2.1307521 3.2009749 0.449554 75
-2.138108 3.2120271 0.360623 75
-2.147645 3.2263529 0.27154899 95
-2.1527231 3.233983 0.18100201 95
-2.145546 3.2232001 0.090805002 95
-2.1482911 3.227325 0.00079399999 75
-2.1332531 3.2047329 -0.088728003 75
-2.138108 3.2120271 -0.179013 95
-2.1528201 3.234129 -0.27165899 95
-1.875653 2.8177471 -0.30503699 175
-1.863472 2.799448 -0.381827 195
-1.847049 2.774776 -0.45683801 175
-1.835091 2.7568121 -0.533158 135
-1.746354 2.6235051 -0.57908601 255
-1.618646 2.4316521 -0.60133398 175
-1.518106 2.280612 -0.62640297 195
-1.405138 2.110903 -0.63632601 135
-1.462056 2.1964109 -0.732521 115
-2.0210941 3.0362389 -1.141645 95
-2.0213599 3.036639 -1.236917 115
-2.03058 3.0504889 -1.340144 155
-1.99103 2.9910741 -1.410032 175
-1.869948 2.809176 -1.41168 175
-1.756963 2.639441 -1.410027 175
-1.66573 2.5023861 -1.41913 175
-1.5754091 2.3666971 -1.420893 175
-1.490808 2.239603 -1.420838 155
-1.417432 2.1293731 -1.426211 155
-2.1288769 3.217602 0.81771201 95
-2.1256959 3.2127941 0.72372299 75
-2.1288581 3.2175729 0.63302302 75
-2.1286521 3.217263 0.54193401 95
-2.115211 3.1969481 0.448439 75
-2.125828 3.2129929 0.36020499 75
-2.134217 3.225673 0.27117601 95
-2.139271 3.2333109 0.18081599 95
-2.1332259 3.224175 0.090805002 95
-2.1359611 3.2283089 0.000933 75
-2.118784 3.202347 -0.088261999 75
-2.1280291 3.216321 -0.178874 95
-2.139385 3.233485 -0.27091599 95
-1.872162 2.829601 -0.30596599 175
-1.857833 2.8079441 -0.382384 195
-1.841471 2.783215 -0.45748699 175
-1.82847 2.7635651 -0.53352797 135
-1.7368619 2.625108 -0.578255 255
-1.573191 2.3777339 -0.58473402 175
-1.516001 2.291297 -0.628429 195
-1.399237 2.114819 -0.63632601 135
-1.459078 2.2052619 -0.734308 115
-2.00947 3.0371301 -1.139725 95
-2.007688 3.034436 -1.233497 115
-2.0210249 3.054594 -1.339417 155
-1.979614 2.9920051 -1.407719 175
-1.863104 2.8159111 -1.4124939 175
-1.7475899 2.6413219 -1.4083149 175
-1.65775 2.505537 -1.418233 175
-1.569768 2.37256 -1.421832 175
-1.483586 2.2423041 -1.419858 155
-1.412429 2.134757 -1.427231 155
-2.1182411 3.2222619 0.81734198 95
-2.1085651 3.2075429 0.72145402 75
-2.1105981 3.2106359 0.63079703 75
-2.115824 3.218585 0.541237 95
-2.1002469 3.19489 0.44751 75
-2.110805 3.2109511 0.35950699 75
-2.118052 3.2219751 0.27061701 95
-2.1252739 3.2329609 0.180631 95
-2.1203539 3.225477 0.090805002 95
-2.1208811 3.2262781 0.001165 75
-2.1059799 3.2036109 -0.087981999 75
-2.110805 3.2109511 -0.17789701 95
-2.127594 3.23649 -0.27054501 95
-1.864849 2.836803 -0.306198 175
-1.854933 2.8217189 -0.383775 175
-1.834289 2.7903149 -0.457811 175
-1.823501 2.773905 -0.534639 135
-1.724767 2.6237111 -0.57659203 255
-1.573612 2.393775 -0.58796102 175
-1.509196 2.295785 -0.628429 195
-1.397181 2.125387 -0.63853103 135
-1.452528 2.2095821 -0.734308 115
-1.9952461 3.0351629 -1.136523 95
-1.993513 3.032527 -1.230077 115
-2.0047901 3.04968 -1.334324 155
-1.9747829 3.004034 -1.410803 155
-1.853737 2.8199 -1.41168 175
-1.741732 2.6495171 -1.410027 175
-1.652272 2.5134311 -1.420028 175
-1.561751 2.375731 -1.420893 175
-1.475968 2.245239 -1.418879 155
-1.404199 2.1360641 -1.42519 155
-2.1044209 3.2195711 0.81549001 95
-2.096921 3.208097 0.72048098 75
-2.104353 3.219466 0.63135302 75
-2.1030431 3.2174621 0.540308 95
-2.091876 3.200377 0.44751 75
-2.100209 3.2131259 0.35922799 75
-2.1063311 3.222492 0.270338 95
-2.1113341 3.2301459 0.180399 95
-2.106431 3.222646 0.090805002 95
-2.108052 3.2251251 0.001351 75
-2.0943069 3.204097 -0.087702997 75
-2.1056659 3.2214761 -0.178315 95
-2.1147561 3.2353821 -0.26980099 95
-1.8595901 2.845001 -0.30666301 175
-1.841038 2.816618 -0.38210499 175
-1.832377 2.8033681 -0.45943201 175
-1.8173079 2.780314 -0.53500903 135
-1.728596 2.644593 -0.58074999 255
-1.580117 2.417434 -0.59349501 175
-1.5010639 2.296489 -0.62741601 195
-1.392663 2.1306469 -0.63908303 135
-1.446738 2.213377 -0.734308 115
-1.98522 3.037204 -1.1352431 95
-1.982483 3.033016 -1.228025 115
-1.992722 3.048681 -1.3314151 155
-1.957824 2.995291 -1.403865 155
-1.846348 2.824743 -1.41168 175
-1.732811 2.651041 -1.4083149 175
-1.643731 2.514756 -1.418233 175
-1.553594 2.3768561 -1.419016 175
-1.472947 2.253474 -1.421818 155
-1.398602 2.1397319 -1.42519 155
-2.0862961 3.2126141 0.81252801 95
-2.0852439 3.210994 0.71983302 75
-2.0883191 3.21573 0.62968302 75
-2.089159 3.2170229 0.539379 95
-2.0769479 3.19822 0.44658101 75
-2.0874059 3.214323 0.35880899 75
-2.0934961 3.223701 0.27005801 95
-2.0995619 3.233042 0.180306 95
-2.091414 3.220495 0.090805002 95
-2.0962951 3.2280121 0.001443 75
-2.078263 3.2002439 -0.087144002 75
-2.0874059 3.214323 -0.17719901 95
-2.1018929 3.2366321 -0.26924399 95
-1.852222 2.8521719 -0.30689499 175
-1.835909 2.8270521 -0.38293999 175
-1.824051 2.8087921 -0.45943201 175
-1.811192 2.788991 -0.53574997 135
-1.715414 2.641506 -0.57867098 255
-1.559159 2.4008939 -0.58749998 175
-1.495297 2.3025551 -0.62792301 195
-1.387383 2.1363821 -0.63963401 135
-1.443284 2.2224629 -0.73609501 115
-1.970008 3.033546 -1.131402 95
-1.96938 3.0325799 -1.225289 115
-1.984682 3.0561421 -1.332142 155
-1.948929 3.001087 -1.403865 135
-1.835969 2.8271439 -1.410053 175
-1.725922 2.6576869 -1.409171 175
-1.637235 2.521121 -1.41913 175
-1.54942 2.3858981 -1.421832 175
-1.464355 2.254909 -1.419858 155
-1.387563 2.1366589 -1.420089 155
-2.0778201 3.2204421 0.81289798 95
-2.0724981 3.2121921 0.71885997 75
-2.075547 3.2169189 0.62884802 75
-2.0752971 3.216531 0.53845 95
-2.06529 3.201021 0.44621 75
-2.0735331 3.2137971 0.35825101 75
-2.0795889 3.2231829 0.269685 95
-2.086709 3.2342169 0.180167 95
-2.0796809 3.223325 0.090805002 95
-2.083457 3.229177 0.0015829999 75
-2.066592 3.203038 -0.086957 75
-2.0767779 3.2188261 -0.17705999 95
-2.0890419 3.237834 -0.26868701 95
-1.849136 2.8660009 -0.30805701 175
-1.827513 2.8324859 -0.38293999 175
-1.8189189 2.8191669 -0.46040499 175
-1.803974 2.7960041 -0.53612 135
-1.70969 2.6498721 -0.57950199 255
-1.561524 2.4202271 -0.59165001 175
-1.4874099 2.305356 -0.62741601 195
-1.364361 2.1146419 -0.63081402 115
-1.436684 2.2267361 -0.73609501 115
-1.960999 3.0393779 -1.131402 95
-1.958336 3.0352521 -1.22392 115
-1.975605 3.062017 -1.332142 155
-1.931011 2.9928999 -1.396928 135
-1.826582 2.831044 -1.40924 175
-1.716069 2.6597581 -1.40746 175
-1.629748 2.5259681 -1.41913 175
-1.5404201 2.387517 -1.419955 175
-1.4576581 2.259244 -1.419858 155
-1.278628 1.981763 -1.307869 175
-2.0661349 3.2232831 0.81215799 95
-2.060828 3.215004 0.718211 75
-2.0627871 3.218061 0.62801301 75
-2.0625279 3.2176571 0.53775299 95
-2.0525601 3.202106 0.44565201 75
-2.0618351 3.2165749 0.357972 75
-2.066782 3.224293 0.26940599 95
-2.0738659 3.2353449 0.18002699 95
-2.0657909 3.2227459 0.090805002 95
-2.071708 3.2319779 0.001676 75
-2.0538449 3.2041099 -0.086677998 75
-2.0607581 3.214896 -0.17622299 95
-2.0751269 3.2373121 -0.26794401 95
-1.840624 2.871475 -0.30805701 175
-1.821238 2.8412311 -0.383497 175
-1.812676 2.8278739 -0.46105301 175
-1.798852 2.806308 -0.53723103 135
-1.700765 2.653286 -0.57908601 255
-1.5627379 2.437957 -0.595339 155
-1.479519 2.30813 -0.62690997 195
-1.3601561 2.121917 -0.63191599 115
-1.42904 2.2293811 -0.73549998 115
-1.945837 3.0356121 -1.12756 95
-1.9452651 3.0347199 -1.221184 115
-1.960479 3.058455 -1.327777 155
-1.922122 2.998616 -1.396928 135
-1.818174 2.8364511 -1.40924 175
-1.712072 2.6709261 -1.410882 175
-1.620317 2.5277829 -1.417335 175
-1.537141 2.3980241 -1.42371 175
-1.45189 2.265027 -1.420838 155
-0.97753298 1.525005 -0.98345 195
-2.052902 3.22241 0.81067598 95
-2.0476 3.214088 0.716914 75
-2.0506001 3.2187979 0.62717801 75
-2.0524681 3.221729 0.537521 95
-2.0414701 3.2044661 0.445281 75
-2.0507009 3.218955 0.35769299 75
-2.053477 3.2233131 0.26903301 95
-2.0605259 3.2343781 0.179842 95
-2.0546341 3.2251289 0.090805002 95
-2.058378 3.231005 0.001861 75
-2.038449 3.199723 -0.086119004 75
-2.0474851 3.213907 -0.17566501 95
-2.0639391 3.2397349 -0.26757199 95
-1.834733 2.8799541 -0.308521 175
-1.813297 2.8463061 -0.383497 175
-1.805833 2.83459 -0.46137699 175
-1.7910089 2.811321 -0.53723103 135
-1.693349 2.658025 -0.57908601 255
-1.538148 2.414408 -0.58749998 135
-1.473068 2.312253 -0.62690997 195
-1.354225 2.1257081 -0.63191599 115
-1.428964 2.2430241 -0.73907399 115
-1.936334 3.0394361 -1.12692 95
-1.933753 3.0353849 -1.2191319 115
-1.952932 3.0654891 -1.328505 135
-1.909775 2.997746 -1.393844 135
-1.812209 2.844599 -1.410867 175
-1.700722 2.6695981 -1.40746 175
-1.617093 2.538327 -1.420926 175
-1.5275919 2.3978391 -1.420893 175
-1.4436851 2.2661321 -1.418879 155
-0.73110801 1.1476099 -0.71616203 175
-2.0396149 3.223861 0.80956501 95
-2.033272 3.213834 0.715617 75
-2.0373011 3.2202029 0.62634301 75
-2.035964 3.2180891 0.53612697 95
-2.028199 3.2058151 0.44472301 75
-2.0363109 3.2186379 0.357135 75
-2.041204 3.226371 0.26884699 95
-2.0492859 3.239146 0.179795 95
-2.0412841 3.2264969 0.090805002 95
-2.043941 3.2306969 0.002047 75
-2.0283861 3.206111 -0.086119004 75
-2.0363109 3.2186379 -0.17552499 95
-2.046298 3.2344241 -0.26627201 95
-1.827801 2.889061 -0.30898601 155
-1.80964 2.860357 -0.38488901 175
-1.799029 2.843585 -0.462026 175
-1.784269 2.820255 -0.53797102 135
-1.695449 2.6798639 -0.58324498 255
-1.501421 2.373179 -0.57458901 115
-1.469934 2.32341 -0.62893599 195
-1.351652 2.1364501 -0.634121 115
-1.42191 2.247503 -0.73907399 115
-1.922724 3.039099 -1.124359 95
-1.923203 3.0398569 -1.218448 115
-1.937315 3.0621631 -1.32414 135
-1.906268 3.013088 -1.398469 155
-1.8061939 2.8549099 -1.413307 175
-1.693293 2.676455 -1.4083149 175
-1.606244 2.5388639 -1.418233 175
-1.520995 2.4041181 -1.421832 175
-1.435626 2.269182 -1.417899 155
-0.71554297 1.131003 -0.70289898 175
-2.029639 3.225507 0.80882502 95
-2.02226 3.2137821 0.71464503 75
-2.026263 3.2201419 0.62550801 75
-2.025979 3.219691 0.535662 95
-2.0161171 3.20402 0.44398001 75
-2.0252531 3.218538 0.35671699 75
-2.0279939 3.2228949 0.268381 95
-2.0381701 3.2390659 0.179656 95
-2.0291331 3.224705 0.090805002 95
-2.033911 3.2322969 0.00214 75
-2.0152259 3.2026041 -0.085653 75
-2.0241899 3.2168491 -0.17496701 95
-2.039449 3.2410991 -0.26645699 95
-1.824968 2.900244 -0.30991501 135
-1.801591 2.8630941 -0.38461 155
-1.792076 2.8479719 -0.462026 175
-1.77842 2.8262701 -0.538342 135
-1.686812 2.680687 -0.58241302 255
-1.4945821 2.3751941 -0.57412797 115
-1.462191 2.323719 -0.62792301 195
-1.345404 2.138119 -0.63357002 115
-1.420482 2.2574339 -0.74145699 115
-1.9122649 3.0389769 -1.122438 95
-1.9107651 3.0365939 -1.215028 115
-1.911968 3.0385051 -1.3110451 115
-1.903814 3.025547 -1.402323 155
-1.796294 2.854676 -1.410867 175
-1.687711 2.6821151 -1.409171 175
-1.601939 2.5458059 -1.420028 175
-1.516997 2.4108169 -1.42371 175
-1.432863 2.2771111 -1.420838 155
-0.71644199 1.138572 -0.70697999 175
-2.0132461 3.2218671 0.80660301 95
-2.0058789 3.210077 0.712699 75
-2.0108891 3.2180941 0.624116 75
-2.0116429 3.2193019 0.534733 95
-2.003931 3.20696 0.443609 75
-2.009845 3.2164249 0.35601899 75
-2.0157421 3.2258611 0.268195 95
-2.022687 3.236975 0.179424 95
-2.0168729 3.2276709 0.090805002 95
-2.0216269 3.23528 0.002233 75
-2.0062139 3.210613 -0.085745998 75
-2.0130169 3.2215011 -0.17482799 95
-2.0229261 3.2373581 -0.26534301 95
-2.0263801 3.242887 -0.35637501 115
-1.8755 3.0014269 -0.4066 135
-1.785211 2.856935 -0.46267399 155
-1.773698 2.83851 -0.539823 135
-1.679419 2.687633 -0.582829 255
-1.488144 2.3815279 -0.57458901 115
-1.452834 2.3250201 -0.62690997 195
-1.339699 2.143966 -0.634121 115
-1.412371 2.2602661 -0.740861 115
-1.9027081 3.04497 -1.122438 95
-1.8972321 3.036206 -1.212292 115
-1.901425 3.042917 -1.310318 115
-1.891366 3.026818 -1.4000109 155
-1.784412 2.8556571 -1.408426 175
-1.6773601 2.6843381 -1.40746 175
-1.592986 2.5493109 -1.41913 175
-1.507545 2.412576 -1.421832 175
-1.4238549 2.2786441 -1.418879 155
-0.70921499 1.134982 -0.70289898 175
-2.0011311 3.2224679 0.80549198 95
-1.9979481 3.2173419 0.71302402 75
-2.000849 3.2220149 0.62383801 75
-2.0005491 3.2215321 0.53426802 95
-1.991816 3.207469 0.44305101 75
-1.996645 3.215245 0.355461 75
-2.006726 3.231478 0.268195 95
-2.0104749 3.237515 0.179285 95
-2.0025761 3.2247951 0.090805002 95
-2.0073111 3.232419 0.0024649999 75
-1.9919699 3.2077169 -0.085280001 75
-1.99875 3.2186351 -0.17412999 95
-2.0128269 3.241303 -0.26515701 95
-2.0120771 3.2400949 -0.355214 95
-1.893232 3.0487161 -0.41355801 115
-1.863641 3.001065 -0.489586 135
-1.81346 2.9202571 -0.55685699 115
-1.6719069 2.692312 -0.582829 255
-1.480461 2.384021 -0.57412797 115
-1.4432729 2.324137 -0.62538999 195
-1.333706 2.1476991 -0.634121 115
-1.407061 2.2658229 -0.74145699 115
-1.8892 3.042223 -1.1192369 95
-1.887755 3.039896 -1.2116081 115
-1.888989 3.0418839 -1.307408 115
-1.8868001 3.0383589 -1.4030941 155
-1.779323 2.8652849 -1.410867 175
-1.6708111 2.690547 -1.4083149 175
-1.586804 2.555268 -1.420028 175
-1.5017329 2.4182761 -1.422771 175
-1.4193259 2.285573 -1.420838 155
-0.70785803 1.139881 -0.70493901 175
-1.9905289 3.2267179 0.80512202 95
-1.985284 3.2182169 0.71205097 75
-1.987121 3.221195 0.62272501 75
-1.98681 3.220691 0.53333902 95
-1.978109 3.2065849 0.44230801 75
-1.987097 3.2211549 0.355461 75
-1.992933 3.2306161 0.267822 95
-1.9966609 3.23666 0.17909899 95
-1.990899 3.227319 0.090805002 95
-1.995611 3.2349579 0.0025579999 75
-1.981395 3.2119131 -0.085187003 75
-1.988144 3.2228529 -0.17399099 95
-1.997973 3.238786 -0.26422799 95
-1.9941109 3.2325251 -0.35335499 95
-1.878978 3.045892 -0.41216701 115
-1.881668 3.050252 -0.49801701 115
-1.883211 3.052753 -0.58499998 95
-1.661858 2.6939311 -0.58199698 255
-1.476446 2.3933721 -0.57551098 115
-1.436371 2.328409 -0.62538999 195
-1.328337 2.1532831 -0.634673 115
-1.401334 2.2716129 -0.74205297 115
-1.876186 3.0413649 -1.116676 95
-1.876753 3.042284 -1.21024 115
-1.880934 3.0490611 -1.308135 115
-1.876808 3.0423729 -1.402323 155
-1.771773 2.872107 -1.41168 175
-1.66377 2.697031 -1.409171 175
-1.5801539 2.561486 -1.420926 175
-1.493624 2.4212179 -1.421832 175
-1.411622 2.288291 -1.419858 155
-0.70447302 1.141976 -0.70493901 175
-1.977401 3.2255621 0.80364102 95
-1.973195 3.2187009 0.71107799 75
-1.976048 3.2233541 0.622168 75
-1.974694 3.2211461 0.53264201 95
-1.964983 3.2053061 0.44156501 75
-1.974966 3.2215891 0.35504299 75
-1.9807709 3.2310591 0.26754299 95
-1.98448 3.2371089 0.17896 95
-1.978743 3.2277501 0.090805002 95
-1.9802999 3.2302899 0.0028359999 75
-1.966153 3.2072141 -0.084628001 75
-1.977051 3.2249911 -0.173712 95
-1.98684 3.240958 -0.26385599 95
-1.986114 3.2397749 -0.35358801 95
-1.859079 3.032553 -0.409105 95
-1.866954 3.045399 -0.49607101 115
-1.868516 3.047946 -0.58277798 95
-1.657396 2.7035639 -0.58324498 255
-1.467723 2.3941669 -0.57458901 115
-1.4207619 2.317565 -0.62083203 215
-1.323324 2.158623 -0.63522398 115
-1.396981 2.2787731 -0.74324399 115
-1.864715 3.0417459 -1.114756 95
-1.862357 3.0379 -1.206135 115
-1.869491 3.049536 -1.305953 115
-1.869269 3.049176 -1.4030941 155
-1.76279 2.8754849 -1.410867 175
-1.656232 2.7016671 -1.409171 175
-1.571126 2.5628409 -1.41913 175
-1.4868571 2.42538 -1.421832 175
-1.4061379 2.29371 -1.420838 155
-0.70128101 1.143939 -0.70493901 175
-1.963273 3.2226789 0.80178899 95
-1.962146 3.2208281 0.71043003 75
-1.961887 3.220403 0.620776 75
-1.963624 3.2232549 0.53217798 95
-1.953953 3.2073791 0.44119301 75
-1.960772 3.2185719 0.35434499 75
-1.9675829 3.229753 0.26717001 95
-1.971272 3.2358069 0.178774 95
-1.96556 3.2264309 0.090805002 95
-1.9660701 3.2272699 0.0030680001 75
-1.954071 3.2075729 -0.084348999 75
-1.96181 3.2202761 -0.172874 95
-1.974673 3.2413919 -0.26329899 95
-1.972926 3.238523 -0.352658 95
-1.84236 3.0242021 -0.40687799 95
-1.8553621 3.0455451 -0.49509901 115
-1.855907 3.0464389 -0.58129698 95
-1.63559 2.684793 -0.57742298 255
-1.466094 2.4065671 -0.576895 115
-1.419318 2.3297851 -0.62336397 215
-1.317291 2.1623099 -0.63522398 115
-1.394585 2.289187 -0.74562699 115
-1.854242 3.043705 -1.113475 95
-1.849955 3.036669 -1.2033989 115
-1.859998 3.053154 -1.305225 115
-1.863628 3.0591121 -1.405407 155
-1.755704 2.8819571 -1.41168 175
-1.650562 2.7093689 -1.410882 175
-1.565823 2.570271 -1.420926 175
-1.47916 2.428015 -1.420893 175
-1.399727 2.2976279 -1.420838 155
-0.69897902 1.147362 -0.70595998 175
-1.953703 3.2284901 0.80178899 95
-1.94645 3.2165051 0.70848399 75
-1.948222 3.2194321 0.619663 75
-1.9499381 3.2222691 0.53124797 95
-1.942366 3.2097549 0.44082201 75
-1.947081 3.2175479 0.353787 75
-1.953854 3.22874 0.26679701 95
-1.960627 3.2399321 0.178727 95
-1.953907 3.228827 0.090805002 95
-1.956486 3.233089 0.0030680001 75
-1.941442 3.20823 -0.084068999 75
-1.951213 3.224375 -0.17273501 95
-1.961954 3.242125 -0.26274201 95
-1.96228 3.2426629 -0.35242599 95
-1.8323539 3.027961 -0.4066 95
-1.842231 3.0442829 -0.49380201 115
-1.844825 3.048569 -0.58055699 95
-1.627617 2.6896341 -0.57742298 255
-1.461969 2.4159009 -0.57827801 115
-1.414402 2.337297 -0.62437701 215
-1.31286 2.169498 -0.63632601 115
-1.387787 2.2933149 -0.74562699 115
-1.843241 3.0459509 -1.112195 95
-1.838991 3.038929 -1.202031 115
-1.844179 3.047502 -1.300133 115
-1.851676 3.059891 -1.4030941 155
-1.746199 2.885591 -1.410867 175
-1.639708 2.709615 -1.4083149 175
-1.557265 2.5733759 -1.420028 175
-1.471949 2.4323931 -1.420893 175
-1.390196 2.297296 -1.417899 155
-0.6929 1.145015 -0.70289898 175
-1.94209 3.2309029 0.80104798 95
-1.932831 3.2155001 0.707187 75
-1.93662 3.2218029 0.61910599 75
-1.937299 3.2229321 0.53055203 95
-1.927704 3.20697 0.43989301 75
-1.936498 3.221601 0.35364699 75
-1.941178 3.2293861 0.266518 95
-1.947915 3.240593 0.178588 95
-1.942258 3.2311821 0.090805002 95
-1.942764 3.2320249 0.0032540001 75
-1.9329441 3.215688 -0.084161997 75
-1.938554 3.2250209 -0.172316 95
-1.948223 3.2411051 -0.26199901 95
-1.9485559 3.2416601 -0.35149699 95
-1.817239 3.0231991 -0.40493 95
-1.831157 3.0463519 -0.49315301 115
-1.833746 3.0506599 -0.57981598 95
-1.623661 2.701158 -0.57908601 255
-1.448779 2.4102199 -0.57551098 95
-1.411448 2.3481159 -0.62640297 215
-1.308398 2.1766801 -0.637429 115
-1.380976 2.2974219 -0.74562699 115
-1.830291 3.0449109 -1.109634 95
-1.82803 3.0411501 -1.200663 115
-1.83225 3.0481701 -1.297951 115
-1.84354 3.0669539 -1.403865 155
-1.73763 2.890759 -1.410867 175
-1.631662 2.714468 -1.4083149 175
-1.551464 2.581049 -1.421823 175
-1.463816 2.435236 -1.419955 175
-1.349238 2.244622 -1.380671 175
-0.69304401 1.152964 -0.70697999 175
-1.929029 3.2295649 0.79956698 95
-1.922832 3.2191911 0.70686299 75
-1.924569 3.2220981 0.61827099 75
-1.927272 3.226624 0.53031898 95
-1.915678 3.207212 0.439336 75
-1.9254479 3.2235701 0.35336801 75
-1.9290791 3.2296491 0.266238 95
-1.933731 3.237437 0.17835601 95
-1.929124 3.2297249 0.090805002 95
-1.931681 3.234004 0.0033470001 75
-1.9208831 3.2159281 -0.083883002 75
-1.9254479 3.2235701 -0.171758 95
-1.936101 3.2414041 -0.26144099 95
-1.939496 3.2470889 -0.35149699 95
-1.806759 3.0248611 -0.40437299 95
-1.819607 3.046371 -0.49217999 115
-1.822196 3.0507071 -0.57870501 95
-1.609089 2.6939249 -0.57617599 255
-1.432063 2.3975489 -0.57090002 115
-1.401909 2.347065 -0.62488401 215
-1.304286 2.1836259 -0.63853103 115
-1.377492 2.3061869 -0.74741501 115
-1.8169219 3.041877 -1.106433 95
-1.8166389 3.0414031 -1.198611 115
-1.822775 3.051676 -1.297223 115
-1.833076 3.0689211 -1.402323 155
-1.729551 2.8956001 -1.410867 175
-1.625002 2.7205651 -1.409171 175
-1.545167 2.586906 -1.422721 175
-1.4588211 2.4423461 -1.421832 175
-0.89769399 1.502913 -0.89279199 195
-0.68893999 1.1534179 -0.70595998 175
-1.916868 3.232228 0.79882699 95
-1.9086829 3.218426 0.70556599 75
-1.912416 3.224721 0.61771399 75
-1.9151 3.2292459 0.52985501 95
-1.905592 3.2132151 0.439336 75
-1.912259 3.2244551 0.35295001 75
-1.915866 3.2305379 0.26595899 95
-1.922531 3.2417769 0.17831001 95
-1.914888 3.228889 0.090805002 95
-1.919471 3.236618 0.0034399999 75
-1.9056751 3.2133551 -0.083416998 75
-1.913276 3.226171 -0.171479 95
-1.923876 3.244045 -0.26107001 95
-1.9252321 3.2463319 -0.350568 95
-1.794216 3.0254121 -0.40353799 95
-1.808014 3.048677 -0.491532 115
-1.810598 3.053035 -0.57796401 95
-1.609599 2.7141111 -0.57991803 255
-1.434451 2.4187751 -0.57551098 115
-1.395516 2.353122 -0.62538999 215
-1.299381 2.19102 -0.63963401 115
-1.370241 2.310503 -0.74741501 115
-1.804458 3.042681 -1.104512 95
-1.805158 3.0438621 -1.197243 115
-1.807477 3.0477729 -1.292858 115
-1.820601 3.0699029 -1.4000109 155
-1.7195131 2.8994479 -1.410053 175
-1.618291 2.7287669 -1.410882 175
-1.537944 2.5932851 -1.423619 175
-1.45024 2.4453981 -1.420893 175
-0.75066298 1.265769 -0.73604298 175
-0.68531299 1.155576 -0.70595998 175
-1.907966 3.235209 0.79845601 95
-1.898808 3.2196801 0.70491701 75
-1.901513 3.224267 0.61687899 75
-1.902158 3.2253599 0.52869302 95
-1.890654 3.2058539 0.43803501 75
-1.899307 3.220526 0.35225201 75
-1.9039069 3.228327 0.26558599 95
-1.912573 3.2430201 0.17821699 95
-1.9059761 3.2318349 0.090805002 95
-1.90851 3.236131 0.003579 75
-1.891729 3.2076759 -0.082858004 75
-1.901334 3.223963 -0.170921 95
-1.914932 3.247021 -0.26088399 95
-1.916285 3.249315 -0.350335 95
-1.784806 3.0263751 -0.40298101 95
-1.7985539 3.049686 -0.49088299 115
-1.800138 3.052372 -0.57685298 95
-1.607932 2.7264609 -0.58199698 255
-1.438423 2.4390359 -0.58012199 115
-1.393693 2.3631909 -0.62741601 215
-1.299883 2.204124 -0.64294201 115
-1.3674999 2.318778 -0.74920201 115
-1.79413 3.0421851 -1.102591 95
-1.793896 3.0417881 -1.194507 115
-1.796239 3.0457611 -1.289948 115
-1.812157 3.072752 -1.39924 155
-1.71428 2.9067881 -1.41168 175
-1.611619 2.732713 -1.410882 175
-1.5297869 2.593956 -1.421823 175
-1.446054 2.451977 -1.422771 175
-0.72010899 1.221041 -0.70567298 175
-0.68336099 1.158729 -0.70697999 175
-1.893821 3.2344029 0.79697502 95
-1.8846951 3.218817 0.70362097 75
-1.8883719 3.2250969 0.61604398 75
-1.886997 3.222749 0.52753198 95
-1.875542 3.203186 0.43710601 75
-1.886155 3.2213111 0.351834 75
-1.890727 3.22912 0.26530701 95
-1.897324 3.240386 0.177985 95
-1.893793 3.234355 0.090805002 95
-1.895303 3.2369349 0.0037179999 75
-1.8796231 3.210155 -0.082672 75
-1.892204 3.231642 -0.17106099 95
-1.899691 3.2444291 -0.25995499 95
-1.902053 3.248462 -0.349406 95
-1.771287 3.025131 -0.40186799 95
-1.783978 3.0468061 -0.48926201 115
-1.786567 3.051228 -0.57537198 95
-1.596393 2.726434 -0.58074999 255
-1.434687 2.4502599 -0.581967 135
-1.382352 2.3608789 -0.62538999 215
-1.3046089 2.228106 -0.64955699 115
-1.360209 2.3230629 -0.74920201 115
-1.782649 3.0445361 -1.101311 95
-1.7833821 3.0457871 -1.193823 115
-1.786662 3.051389 -1.289948 115
-1.7969 3.0688751 -1.3946151 155
-1.706063 2.9137361 -1.4124939 175
-1.603026 2.737762 -1.410882 175
-1.5225331 2.600291 -1.422721 175
-1.438344 2.456507 -1.422771 175
-0.71538901 1.221792 -0.70469397 175
-0.67797899 1.157901 -0.70493901 175
-1.880828 3.232883 0.79549402 95
-1.876691 3.2257731 0.70394498 75
-1.878363 3.228646 0.61576599 75
-1.87799 3.2280059 0.52753198 95
-1.86659 3.208411 0.43710601 75
-1.8781559 3.2282901 0.351973 75
-1.880698 3.2326601 0.26521301 95
-1.887262 3.243943 0.177938 95
-1.879725 3.2309871 0.090805002 95
-1.881229 3.233573 0.0039499998 75
-1.868642 3.2119379 -0.082484998 75
-1.877152 3.2265661 -0.170224 95
-1.886618 3.242836 -0.25921199 95
-1.888978 3.2468929 -0.34847701 95
-1.762832 3.0300651 -0.40186799 95
-1.775463 3.0517759 -0.48926201 115
-1.775074 3.0511079 -0.57426101 95
-1.58287 2.720736 -0.578255 255
-1.435668 2.467715 -0.58565599 155
-1.375754 2.3647311 -0.62538999 215
-1.302249 2.2383871 -0.65176201 115
-1.355637 2.330153 -0.75039297 115
-1.771282 3.044589 -1.09939 95
-1.771089 3.0442569 -1.191087 115
-1.775323 3.0515361 -1.287766 115
-1.789251 3.0754759 -1.395386 155
-1.697001 2.9169099 -1.41168 175
-1.595374 2.742228 -1.410882 175
-1.514367 2.602988 -1.421823 175
-1.430591 2.458988 -1.421832 175
-0.71197402 1.223785 -0.70469397 175
-0.67560798 1.1612771 -0.70595998 175
-1.8668751 3.229615 0.79364198 95
-1.8597749 3.2173319 0.70135099 75
-1.863392 3.2235911 0.61409599 75
-1.8639981 3.2246389 0.52636999 95
-1.85563 3.2101631 0.436735 75
-1.864141 3.2248859 0.35127601 75
-1.868664 3.2327111 0.264934 95
-1.871191 3.237083 0.17761301 95
-1.867692 3.231029 0.090805002 95
-1.86919 3.2336209 0.0040890002 75
-1.856666 3.2119551 -0.082206003 75
-1.866138 3.2283411 -0.169945 95
-1.877555 3.2480919 -0.25921199 95
-1.879904 3.252156 -0.34847701 95
-1.750399 3.0281179 -0.400754 95
-1.763971 3.0515959 -0.488289 115
-1.765564 3.054352 -0.57389098 95
-1.580162 2.733614 -0.58033401 255
-1.4404581 2.4919331 -0.59118903 155
-1.369145 2.3685629 -0.62538999 215
-1.299842 2.248673 -0.65396702 115
-1.35008 2.335582 -0.75098902 115
-1.75898 3.0429621 -1.0968291 95
-1.7597589 3.0443101 -1.189034 115
-1.763065 3.05003 -1.284856 115
-1.777885 3.0756669 -1.393073 155
-1.687934 2.9200561 -1.410867 175
-1.5868061 2.7451079 -1.410027 175
-1.503515 2.601018 -1.418233 175
-1.423718 2.4629731 -1.421832 175
-0.709427 1.227278 -0.70567298 175
-0.67064101 1.16018 -0.70391899 175
-1.852806 3.228646 0.79216099 95
-1.846711 3.218024 0.700378 75
-1.851284 3.2259929 0.61353898 75
-1.85287 3.228756 0.52613801 95
-1.843554 3.212522 0.43636301 75
-1.8510211 3.2255349 0.35085699 75
-1.85651 3.2351 0.26474801 95
-1.8600169 3.2412109 0.17756701 95
-1.856537 3.235146 0.090805002 95
-1.8570319 3.2360089 0.0041820002 75
-1.846566 3.217772 -0.082206003 75
-1.853007 3.228996 -0.169526 95
-1.863377 3.247066 -0.25846899 95
-1.865723 3.2511539 -0.34754801 95
-1.7369339 3.026731 -0.39964101 95
-1.750446 3.050276 -0.48699301 115
-1.75009 3.049655 -0.57166898 95
-1.619278 2.8217061 -0.60070902 255
-1.4055001 2.4491839 -0.57827801 175
-1.371327 2.3896339 -0.63045502 195
-1.2994699 2.2644169 -0.65782601 115
-1.345587 2.344779 -0.75277603 115
-1.746582 3.0435419 -1.094908 95
-1.745509 3.0416729 -1.185614 115
-1.750693 3.0507059 -1.282673 115
-1.763621 3.0732341 -1.389219 155
-1.6787519 2.925344 -1.410867 175
-1.578174 2.7500789 -1.410027 175
-1.497115 2.608829 -1.420028 175
-1.413337 2.4628389 -1.419016 175
-0.705567 1.229501 -0.70567298 175
-0.66956103 1.1667579 -0.70697999 175
-1.84281 3.2321 0.79179102 95
-1.835762 3.2197399 0.69972998 75
-1.839325 3.2259891 0.61270398 75
-1.83991 3.227015 0.52520901 95
-1.831617 3.2124679 0.43580601 75
-1.8380539 3.2237589 0.350299 75
-1.843511 3.2333291 0.264375 95
-1.849969 3.2446561 0.17752101 95
-1.8425421 3.231631 0.090805002 95
-1.846007 3.2377081 0.0042750002 75
-1.8336149 3.2159741 -0.081832998 75
-1.8390419 3.225492 -0.16882899 95
-1.851343 3.247067 -0.257911 95
-1.854669 3.2528999 -0.347083 95
-1.727494 3.0298491 -0.39936301 95
-1.739967 3.051723 -0.48634401 115
-1.73962 3.051116 -0.57092899 95
-1.657902 2.9077909 -0.62066901 255
-1.451671 2.546083 -0.60363901 215
-1.3531491 2.3732851 -0.62437701 195
-1.300759 2.281399 -0.66223598 115
-1.340925 2.351845 -0.753968 115
-1.737138 3.046762 -1.094268 95
-1.737009 3.046536 -1.185614 115
-1.741244 3.0539639 -1.2819459 115
-1.753204 3.0749409 -1.387677 155
-1.6723861 2.9331951 -1.4124939 175
-1.572279 2.757616 -1.411738 175
-1.493365 2.6192091 -1.423619 155
-1.406454 2.4667759 -1.419016 175
-0.70385897 1.234496 -0.70763302 175
-0.66544801 1.167128 -0.70595998 175
-1.830871 3.2321031 0.79067999 95
-1.824819 3.2214191 0.699081 75
-1.827381 3.2259431 0.61186898 75
-1.8279541 3.2269549 0.52451199 95
-1.819694 3.212373 0.43524799 75
-1.826094 3.223671 0.34988099 75
-1.83349 3.236726 0.26428199 95
-1.83893 3.24633 0.17742801 95
-1.832525 3.235023 0.090805002 95
-1.834002 3.2376311 0.0044140001 75
-1.818719 3.2106521 -0.081274003 75
-1.828061 3.227143 -0.16855 95
-1.840305 3.248759 -0.25753999 95
-1.8436199 3.2546101 -0.34661901 95
-1.714146 3.0260451 -0.397971 95
-1.72852 3.051419 -0.48537099 115
-1.7291549 3.052541 -0.57018799 95
-1.6680959 2.944751 -0.62856901 235
-1.480046 2.6127801 -0.62070101 235
-1.343655 2.372004 -0.62285799 195
-1.299121 2.293386 -0.66499299 115
-1.3352931 2.3572421 -0.75456399 115
-1.727689 3.049953 -1.093628 95
-1.723863 3.0431981 -1.182194 115
-1.729954 3.053952 -1.2797641 115
-1.743701 3.0782189 -1.386907 155
-1.663288 2.936264 -1.41168 175
-1.563681 2.7604229 -1.410882 175
-1.48164 2.6155939 -1.41913 155
-1.350819 2.38465 -1.3664351 195
-0.696971 1.230388 -0.70371401 175
-0.66303402 1.1704791 -0.70697999 175
-1.818946 3.232064 0.78956902 95
-1.811944 3.2196231 0.69778401 75
-1.8164231 3.227581 0.61131197 75
-1.816013 3.2268529 0.52381498 95
-1.807786 3.212235 0.43469101 75
-1.814149 3.223542 0.349462 75
-1.821504 3.2366109 0.264002 95
-1.826915 3.2462251 0.177288 95
-1.818579 3.2314129 0.090805002 95
-1.821031 3.23577 0.0046000001 75
-1.809746 3.215718 -0.081274003 75
-1.817085 3.2287581 -0.16827101 95
-1.827319 3.246943 -0.25679699 95
-1.830627 3.25282 -0.345689 95
-1.703746 3.0273681 -0.397414 95
-1.718056 3.052794 -0.484723 115
-1.718697 3.0539329 -0.56944698 95
-1.663704 2.9562171 -0.63023299 215
-1.486107 2.640646 -0.62715697 235
-1.337975 2.3774331 -0.62336397 195
-1.292711 2.2970049 -0.66499299 115
-1.330578 2.364289 -0.75575501 115
-1.714519 3.046509 -1.090427 95
-1.7144361 3.0463619 -1.18151 115
-1.718678 3.0539 -1.277581 115
-1.7296669 3.073426 -1.382282 155
-1.655082 2.940897 -1.41168 175
-1.555966 2.7647791 -1.410882 175
-1.472577 2.616606 -1.417335 155
-0.94402599 1.677429 -0.932643 215
-0.69609803 1.2368881 -0.706653 175
-0.65807599 1.169327 -0.70493901 175
-1.806866 3.2343309 0.78882802 95
-1.800858 3.223577 0.69746 75
-1.804342 3.2298141 0.61075598 75
-1.803929 3.229074 0.52335 95
-1.795743 3.214422 0.43431899 75
-1.804013 3.2292249 0.349462 75
-1.80743 3.2353411 0.26363 95
-1.812807 3.244966 0.177103 95
-1.809394 3.238857 0.090805002 95
-1.8108571 3.2414751 0.0046000001 75
-1.797686 3.2179 -0.081087999 75
-1.80304 3.227484 -0.167712 95
-1.813225 3.2457139 -0.256053 95
-1.81943 3.2568209 -0.34545699 95
-1.692295 3.029247 -0.39685801 95
-1.704607 3.051285 -0.483426 115
-1.708135 3.057601 -0.56907701 95
-1.643913 2.942642 -0.62565899 215
-1.4759049 2.6419041 -0.62623399 235
-1.331443 2.3833129 -0.62387103 195
-1.296741 2.3211949 -0.67160797 115
-1.324075 2.3701241 -0.75635099 115
-1.703091 3.0485721 -1.089146 95
-1.700274 3.04353 -1.17809 115
-1.705441 3.052779 -1.274671 115
-1.719103 3.077234 -1.381511 155
-1.647617 2.9492719 -1.413307 175
-1.549036 2.77281 -1.412594 175
-1.462607 2.618099 -1.41554 155
-0.732054 1.310393 -0.70729703 195
-0.69135797 1.237547 -0.70567298 175
-0.65691602 1.175894 -0.708 175
-1.790197 3.225616 0.78586602 95
-1.784187 3.214788 0.694866 75
-1.788588 3.222718 0.60880703 75
-1.792977 3.2306249 0.52288598 95
-1.772265 3.193306 0.43153301 75
-1.791116 3.227273 0.34890401 75
-1.793541 3.2316411 0.26316401 95
-1.7911251 3.227289 0.17649899 95
-1.790637 3.2264099 0.090805002 95
-1.795976 3.2360301 0.0048790001 75
-1.784815 3.21592 -0.080715001 75
-1.786275 3.21855 -0.166596 95
-1.795457 3.235095 -0.254381 95
-1.80358 3.2497311 -0.343831 95
-1.679985 3.027034 -0.395744 95
-1.694164 3.052582 -0.482777 115
-1.697683 3.0589221 -0.56833601 95
-1.644233 2.962616 -0.62940103 215
-1.4675781 2.6443141 -0.62577301 235
-1.325721 2.3887141 -0.62437701 195
-1.2949179 2.3332119 -0.67436397 115
-1.321157 2.3804901 -0.75873399 115
-1.691813 3.048346 -1.087226 95
-1.693593 3.051553 -1.179458 115
-1.693294 3.0510139 -1.2717609 115
-1.706921 3.075568 -1.378427 155
-1.635828 2.9474721 -1.410053 175
-1.5412869 2.7771249 -1.412594 175
-1.45529 2.622174 -1.41554 155
-0.72153598 1.3000799 -0.69978499 195
-0.68790001 1.239473 -0.70567298 175
-0.65196002 1.174716 -0.70595998 175
-1.681542 3.0498819 0.746984 95
-1.6722929 3.0331049 0.65984797 75
-1.693519 3.071605 0.58375603 75
-1.680364 3.047745 0.49779701 95
-1.6671931 3.0238571 0.412954 75
-1.678061 3.0435669 0.333837 75
-1.691908 3.068682 0.25422001 95
-1.688463 3.062434 0.171996 95
-1.6821589 3.0510001 0.090805002 95
-1.759902 3.1920061 0.006178 55
-1.6822619 3.051187 -0.071677998 75
-1.687694 3.061039 -0.153622 95
-1.689307 3.063966 -0.235617 95
-1.696669 3.077318 -0.32013601 95
-1.6686569 3.026511 -0.39490899 95
-1.6827739 3.0521159 -0.481805 115
-1.685338 3.056767 -0.56685501 95
-1.638788 2.9723361 -0.63064897 215
-1.463946 2.6552191 -0.62761801 235
-1.314375 2.383935 -0.62184501 195
-1.2948951 2.348604 -0.67822301 115
-1.316348 2.3875141 -0.75992501 115
-1.680549 3.0480809 -1.085305 95
-1.67962 3.0463951 -1.175354 115
-1.683867 3.0540991 -1.271034 115
-1.697435 3.078707 -1.377656 155
-1.627591 2.952029 -1.410053 175
-1.5300339 2.7750859 -1.409171 175
-1.44451 2.619967 -1.411949 155
-0.723019 1.3113689 -0.705419 175
-0.68443602 1.241389 -0.70567298 175
-0.649508 1.178039 -0.70697999 175
-1.6653481 3.043081 0.74439198 95
-1.657071 3.027956 0.65790302 75
-1.65914 3.031738 0.57651901 75
-1.660291 3.0338409 0.495242 95
-1.650038 3.015105 0.411468 75
-1.658913 3.031322 0.332441 75
-1.662118 3.037178 0.25226301 95
-1.669235 3.050184 0.17153201 95
-1.665844 3.043988 0.090805002 95
-1.6922719 3.092279 0.0089640003 55
-1.652527 3.0196531 -0.069720998 75
-1.666575 3.0453241 -0.151948 95
-1.672025 3.0552831 -0.23413099 95
-1.670781 3.053009 -0.31618699 95
-1.65914 3.031738 -0.39490899 95
-1.673177 3.0573881 -0.481805 115
-1.671953 3.05515 -0.56537402 95
-1.6397721 2.996347 -0.63522297 195
-1.466809 2.6802909 -0.63315099 215
-1.309665 2.3931439 -0.62336397 195
-1.290279 2.3577199 -0.67987698 115
-1.309757 2.393312 -0.76052099 115
-1.668236 3.0483589 -1.083384 95
-1.668237 3.0483589 -1.173985 115
-1.670687 3.0528369 -1.268124 115
-1.6859829 3.080786 -1.376115 155
