# .PCD v0.7 - Point Cloud Data file format
VERSION 0.7
FIELDS x y z intensity
SIZE 4 4 4 4
TYPE F F F F
COUNT 1 1 1 1
WIDTH 1352
HEIGHT 1
VIEWPOINT 0 0 0 1 0 0 0
POINTS 1352
DATA ascii
-2.1500881 -0.35093501 0.29405299 75
-2.1797631 -0.35577801 0.24524599 75
-2.182714 -0.35626 0.193941 95
-2.18647 -0.35687301 0.14224 95
-2.1771901 -0.355358 0.090805002 95
-2.1627901 -0.353008 0.039926998 75
-2.151166 -0.35111001 -0.01084 75
-2.1817319 -0.35609901 -0.063775003 95
-2.189395 -0.35734999 -0.116158 95
-2.1663749 -0.35359299 -0.165888 75
-2.1657751 -0.353495 -0.217603 95
-2.1659181 -0.35351801 -0.26975101 95
-2.1938591 -0.35807899 -0.32800901 195
-2.214566 -0.36145899 -0.38614401 95
-2.228013 -0.363653 -0.44409201 95
-2.220787 -0.36247399 -0.49825799 95
-2.2142839 -0.361413 -0.55253297 95
-2.263016 -0.36936599 -0.62469 95
-2.217833 -0.361992 -0.668513 95
-2.0700021 -0.337863 -0.672584 215
-1.928766 -0.31481099 -0.67231899 215
-1.819557 -0.29698601 -0.67927003 195
-1.704052 -0.278133 -0.67792702 215
-1.61105 -0.262954 -0.681858 175
-2.238354 -0.36534101 -1.0483789 175
-2.063514 -0.336804 -1.0209039 175
-1.906707 -0.31121001 -0.99467802 135
-1.925274 -0.31424099 -1.066085 155
-2.16186 -0.346661 0.50332397 75
-2.1629989 -0.34684399 0.45071301 75
-2.15502 -0.34556401 0.39754301 75
-2.177161 -0.349114 0.34865999 95
-2.1490941 -0.344614 0.29386699 75
-2.180748 -0.34968999 0.24524599 75
-2.179754 -0.34953001 0.193754 95
-2.187458 -0.350766 0.14224 95
-2.178174 -0.34927699 0.090805002 95
-2.157845 -0.346017 0.040066 75
-2.1481919 -0.34446901 -0.010654 75
-2.1846881 -0.35032099 -0.063914999 95
-2.1864519 -0.350604 -0.115787 95
-2.1653931 -0.34722701 -0.165656 75
-2.164798 -0.347132 -0.217324 95
-2.1668971 -0.347469 -0.26975101 95
-2.189029 -0.351017 -0.32689801 195
-2.217499 -0.35558301 -0.38655999 95
-2.225177 -0.356814 -0.44317001 95
-2.2217901 -0.356271 -0.49825799 95
-2.2171831 -0.35553199 -0.55308402 95
-2.260268 -0.362441 -0.62349898 95
-2.209481 -0.35429701 -0.66531098 95
-2.0672259 -0.33148599 -0.67121601 215
-1.935156 -0.31030801 -0.67450202 215
-1.820379 -0.29190299 -0.67927003 195
-1.701214 -0.27279499 -0.67629999 215
-1.615348 -0.25902599 -0.68356901 175
-2.2111311 -0.35456201 -1.034016 155
-2.0766521 -0.33299801 -1.027476 175
-1.90929 -0.30616099 -0.99565798 135
-1.921049 -0.30804601 -1.063025 155
-2.1628201 -0.34062201 0.50332397 75
-2.1600599 -0.340188 0.450064 75
-2.157933 -0.33985299 0.39782101 75
-2.178128 -0.34303299 0.34865999 95
-2.150048 -0.33861101 0.29386699 75
-2.177774 -0.342978 0.244967 75
-2.176775 -0.34281999 0.19356801 95
-2.1706531 -0.341856 0.141822 75
-2.1811161 -0.34350401 0.090805002 95
-2.1627531 -0.34061199 0.039972998 75
-2.1491461 -0.338469 -0.010654 75
-2.181716 -0.34359801 -0.063635997 95
-2.1893899 -0.344807 -0.115972 95
-2.164392 -0.34086999 -0.16542301 75
-2.1618459 -0.340469 -0.216768 95
-2.1659091 -0.34110901 -0.269427 95
-2.1977661 -0.34612599 -0.32837901 195
-2.2165501 -0.349085 -0.38614401 95
-2.224242 -0.35029599 -0.442709 95
-2.220865 -0.34976399 -0.497751 95
-2.2143691 -0.34874099 -0.55198097 95
-2.2593851 -0.355831 -0.62290299 95
-2.20859 -0.34783101 -0.664671 95
-2.066288 -0.32541999 -0.67053199 215
-1.934175 -0.30461299 -0.673774 215
-1.817541 -0.28624499 -0.677728 195
-1.707384 -0.26889601 -0.67874098 215
-1.610708 -0.25367001 -0.68100202 175
-2.146791 -0.33809799 -1.000801 155
-2.079318 -0.327472 -1.028415 175
-1.9101371 -0.30082801 -0.99565798 135
-1.8981121 -0.29893401 -1.0487421 155
-2.1637621 -0.33458099 0.50332397 75
-2.1649029 -0.33475801 0.45071301 75
-2.160831 -0.33412799 0.39809901 75
-2.1790769 -0.33694899 0.34865999 95
-2.145081 -0.33169299 0.293309 75
-2.1787241 -0.33689499 0.244967 75
-2.1777239 -0.33673999 0.19356801 95
-2.157768 -0.33365399 0.141497 75
-2.1800909 -0.33710599 0.090805002 95
-2.159744 -0.33396 0.040066 75
-2.154032 -0.33307701 -0.01084 75
-2.1806951 -0.33719999 -0.063496001 95
-2.186408 -0.338083 -0.115601 95
-2.1614089 -0.33421701 -0.164959 75
-2.166703 -0.33503601 -0.217324 95
-2.166853 -0.33505899 -0.269427 95
-2.198724 -0.33998799 -0.32837901 195
-2.2175159 -0.342893 -0.38614401 95
-2.2252109 -0.34408301 -0.442709 95
-2.221833 -0.34356099 -0.497751 95
-2.213434 -0.342262 -0.55142999 95
-2.2622571 -0.349812 -0.62349898 95
-2.2114251 -0.34195101 -0.66531098 95
-2.0709031 -0.320223 -0.67189997 215
-1.933177 -0.298926 -0.67304701 215
-1.823805 -0.28201401 -0.68004102 195
-1.68646 -0.26077601 -0.66897899 235
-1.613197 -0.249448 -0.681858 175
-2.1353631 -0.33019 -0.99451703 155
-2.080225 -0.32166401 -1.028415 175
-1.926478 -0.29789001 -1.004475 155
-1.898939 -0.293632 -1.0487421 155
-2.162688 -0.32861999 0.50295401 75
-2.165772 -0.32908899 0.45071301 75
-2.1597409 -0.32817301 0.39782101 75
-2.179951 -0.33124399 0.34865999 95
-2.1479111 -0.32637501 0.293495 75
-2.1795981 -0.33118999 0.244967 75
-2.174648 -0.33043799 0.19338199 95
-2.1586339 -0.328004 0.141497 75
-2.178988 -0.33109701 0.090805002 95
-2.1625869 -0.328605 0.04002 75
-2.1509459 -0.32683599 -0.010654 75
-2.1795981 -0.33118999 -0.063357003 95
-2.1872859 -0.332358 -0.115601 95
-2.1603119 -0.32825899 -0.164727 75
-2.1616991 -0.32846999 -0.216489 95
-2.165772 -0.32908899 -0.26910299 95
-2.193778 -0.33334401 -0.327268 195
-2.2184069 -0.33708701 -0.38614401 95
-2.22418 -0.337964 -0.44224799 95
-2.2227249 -0.33774301 -0.497751 95
-2.214323 -0.33646601 -0.55142999 95
-2.263165 -0.34388801 -0.62349898 95
-2.208566 -0.335592 -0.66403103 95
-2.068018 -0.314235 -0.67053199 215
-1.928427 -0.293024 -0.67086399 215
-1.822713 -0.276961 -0.67927003 195
-1.7070071 -0.25938001 -0.67792702 235
-1.61027 -0.24468 -0.68014699 175
-2.125618 -0.322988 -0.98913097 175
-2.070585 -0.31462499 -1.022781 175
-1.972072 -0.299656 -1.029947 155
-1.909905 -0.29021001 -1.054863 175
-2.165653 -0.32211399 0.50332397 75
-2.158987 -0.32112199 0.44941601 75
-2.1607611 -0.32138601 0.39782101 75
-2.177052 -0.323809 0.34819499 95
-2.1489251 -0.31962499 0.293495 75
-2.176681 -0.32375401 0.244688 75
-2.1736989 -0.32330999 0.193289 95
-2.1596529 -0.32122099 0.141497 75
-2.1760609 -0.32366201 0.090805002 95
-2.1596529 -0.32122099 0.040112998 75
-2.14801 -0.319489 -0.010467 75
-2.1806281 -0.324341 -0.063357003 95
-2.1863489 -0.325192 -0.115415 95
-2.1632979 -0.32176301 -0.164959 75
-2.158802 -0.32109499 -0.215933 95
-2.166795 -0.322283 -0.26910299 95
-2.196758 -0.32674 -0.32763901 195
-2.215585 -0.32954001 -0.385313 95
-2.2252309 -0.330975 -0.44224799 95
-2.2199481 -0.33018899 -0.49673799 95
-2.211565 -0.328942 -0.550327 95
-2.262346 -0.33649501 -0.62290299 95
-2.211484 -0.32892999 -0.664671 95
-2.068995 -0.30773699 -0.67053199 215
-1.934867 -0.28778699 -0.67304701 215
-1.816272 -0.27014801 -0.67618698 195
-1.704199 -0.25347799 -0.67629999 235
-1.612819 -0.239886 -0.68100202 175
-2.2114749 -0.32892901 -1.032221 155
-2.076803 -0.308898 -1.025598 175
-1.974728 -0.29371601 -1.030926 155
-1.948241 -0.289776 -1.077307 175
-2.1607101 -0.31521401 0.502213 75
-2.1637809 -0.31566101 0.450064 75
-2.1577311 -0.31477901 0.397264 75
-2.175982 -0.31744099 0.34796301 95
-2.145869 -0.31304801 0.29312399 75
-2.177577 -0.31767401 0.244688 75
-2.1765699 -0.317527 0.19338199 95
-2.1585641 -0.31490001 0.141451 75
-2.1769569 -0.31758401 0.090805002 95
-2.1625209 -0.315478 0.040066 75
-2.152848 -0.31406599 -0.010654 75
-2.181525 -0.31825 -0.063357003 95
-2.1872489 -0.319085 -0.115415 95
-2.1641879 -0.31572101 -0.164959 75
-2.1616499 -0.31535101 -0.21621101 95
-2.1657341 -0.31594601 -0.268778 95
-2.1918271 -0.31975299 -0.32652801 195
-2.216496 -0.32335201 -0.385313 95
-2.2261469 -0.32475999 -0.44224799 95
-2.2227759 -0.32426801 -0.49724501 95
-2.212476 -0.32276499 -0.550327 95
-2.2613871 -0.32990101 -0.622307 95
-2.212394 -0.32275301 -0.664671 95
-2.067986 -0.301687 -0.66984802 215
-1.937506 -0.28265199 -0.673774 215
-1.820672 -0.265607 -0.677728 195
-1.726596 -0.251883 -0.68606198 215
-1.611693 -0.235121 -0.68014699 175
-2.2530611 -0.328686 -1.052868 135
-2.0584359 -0.300293 -1.01527 175
-1.970364 -0.28744501 -1.027987 155
-1.9524471 -0.28483099 -1.079347 195
-2.159636 -0.3089 0.50184298 75
-2.164654 -0.309618 0.450064 75
-2.160562 -0.30903301 0.39754301 75
-2.1748929 -0.31108201 0.34773001 95
-2.148706 -0.30733699 0.293309 75
-2.1784551 -0.31159201 0.244688 75
-2.1754711 -0.311165 0.193289 95
-2.157455 -0.308588 0.141405 75
-2.1738751 -0.31093699 0.090805002 95
-2.157455 -0.308588 0.040205002 75
-2.1438279 -0.30663899 -0.010188 75
-2.1784551 -0.31159201 -0.063078001 95
-2.1861601 -0.31269401 -0.115229 95
-2.161128 -0.30911401 -0.16449399 75
-2.158601 -0.308752 -0.215654 95
-2.168561 -0.310177 -0.26910299 95
-2.198549 -0.314466 -0.32763901 195
-2.217391 -0.31716099 -0.385313 95
-2.2251191 -0.318266 -0.441787 95
-2.2217569 -0.31778601 -0.49673799 95
-2.215271 -0.31685799 -0.550879 95
-2.2604101 -0.32331401 -0.62171102 95
-2.211411 -0.31630599 -0.66403103 95
-2.0706811 -0.296177 -0.67053199 215
-1.941976 -0.27776799 -0.67522901 215
-1.823233 -0.26078299 -0.67849898 195
-1.707397 -0.244215 -0.67711401 215
-1.608765 -0.23010699 -0.67843503 175
-2.2309699 -0.319103 -1.041198 115
-2.078496 -0.29729399 -1.025598 175
-1.972885 -0.28218901 -1.028967 155
-2.0060251 -0.28692901 -1.110973 175
-2.162437 -0.303141 0.502213 75
-2.159647 -0.30274999 0.44909099 75
-2.1574941 -0.302448 0.39698601 75
-2.1757541 -0.30500799 0.34773001 95
-2.1535001 -0.30188799 0.293681 75
-2.177341 -0.30522999 0.24454799 75
-2.176331 -0.305089 0.193289 95
-2.160289 -0.30283999 0.141451 75
-2.1747351 -0.304865 0.090805002 95
-2.156328 -0.30228499 0.040252 75
-2.1466539 -0.300928 -0.010281 75
-2.181293 -0.30578399 -0.063216999 95
-2.1830809 -0.30603501 -0.114858 95
-2.1600161 -0.302802 -0.164262 75
-2.1614161 -0.30299801 -0.215933 95
-2.1635549 -0.303298 -0.26813 95
-2.191633 -0.30723399 -0.32615799 195
-2.2143929 -0.310424 -0.38448101 95
-2.2221439 -0.31151101 -0.44086501 95
-2.2207201 -0.31131101 -0.496232 95
-2.2161469 -0.31066999 -0.550879 95
-2.259413 -0.31673601 -0.62111598 95
-2.216038 -0.310655 -0.66531098 95
-2.071501 -0.29039299 -0.67053199 215
-1.9409 -0.27208501 -0.67450202 215
-1.822127 -0.25543499 -0.677728 195
-1.704453 -0.238939 -0.67548698 215
-1.612981 -0.226116 -0.68014699 175
-2.2194631 -0.31113499 -1.034914 95
-2.0810659 -0.29173401 -1.0265369 175
-1.984026 -0.27812999 -1.034845 155
-1.986376 -0.27846 -1.098731 155
-2.157434 -0.29629901 0.50110197 75
-2.1604841 -0.296718 0.44909099 75
-2.1524429 -0.295614 0.39615101 75
-2.1765971 -0.298931 0.34773001 95
-2.1464429 -0.29478899 0.29293799 75
-2.172255 -0.298334 0.24413 75
-2.177175 -0.29901001 0.193289 95
-2.1551831 -0.29598999 0.141312 75
-2.1775589 -0.299063 0.090805002 95
-2.1611259 -0.29680601 0.040158998 75
-2.1455071 -0.29466099 -0.010188 75
-2.180161 -0.29942 -0.063078001 95
-2.1859 -0.300208 -0.115044 95
-2.164789 -0.29730901 -0.164727 75
-2.15833 -0.296422 -0.215376 95
-2.1643939 -0.29725501 -0.26813 95
-2.192482 -0.301112 -0.32615799 195
-2.2133131 -0.30397299 -0.384065 95
-2.2249329 -0.30556899 -0.44132599 95
-2.217747 -0.304582 -0.49521899 95
-2.211293 -0.30369601 -0.54922497 95
-2.260289 -0.31042501 -0.62111598 95
-2.2150199 -0.30420801 -0.664671 95
-2.0574081 -0.28256199 -0.66505998 215
-1.945343 -0.267171 -0.67595702 215
-1.830146 -0.25134999 -0.680812 195
-1.705114 -0.23417801 -0.67548698 215
-1.608234 -0.220873 -0.67758 175
-2.2167821 -0.30445001 -1.033118 95
-2.069627 -0.28424001 -1.0199651 175
-1.970976 -0.27069101 -1.0270081 155
-1.954765 -0.26846501 -1.079347 155
-2.1602509 -0.290158 0.501472 75
-2.161355 -0.290306 0.44909099 75
-2.1572371 -0.28975299 0.396707 75
-2.1794429 -0.29273599 0.34796301 95
-2.145334 -0.28815401 0.292752 75
-2.1770849 -0.29241899 0.24440899 75
-2.1760719 -0.292283 0.193195 95
-2.1540699 -0.28932801 0.141265 75
-2.174473 -0.292068 0.090805002 95
-2.1600151 -0.290126 0.040205002 75
-2.1404309 -0.287496 -0.009908 75
-2.18104 -0.29295 -0.063078001 95
-2.1848071 -0.29345599 -0.114858 95
-2.1617241 -0.29035601 -0.164262 75
-2.1572371 -0.28975299 -0.215097 95
-2.163311 -0.29056901 -0.26780599 95
-2.1933661 -0.294606 -0.32615799 195
-2.2180829 -0.29792601 -0.38489699 95
-2.2277589 -0.299225 -0.441787 95
-2.222476 -0.29851601 -0.496232 95
-2.212184 -0.297133 -0.54922497 95
-2.263092 -0.30397099 -0.62171102 95
-2.214035 -0.297382 -0.66403103 95
-2.075001 -0.27870801 -0.67121601 215
-1.940588 -0.260654 -0.673774 215
-1.829055 -0.245673 -0.68004102 195
-1.705801 -0.229118 -0.67548698 215
-1.612465 -0.216581 -0.67929101 175
-2.214133 -0.29739499 -1.031323 95
-2.073961 -0.278568 -1.021843 175
-1.9648581 -0.26391301 -1.0230891 155
-1.935094 -0.25991601 -1.0671051 175
-2.161103 -0.28374699 0.501472 75
-2.160249 -0.28363499 0.44876701 75
-2.15416 -0.28283599 0.39615101 75
-2.1783321 -0.28600901 0.34773001 95
-2.1461799 -0.28178799 0.292752 75
-2.1759651 -0.28569901 0.244269 75
-2.17693 -0.28582501 0.193195 95
-2.1549189 -0.28293499 0.141265 75
-2.1773131 -0.28587499 0.090805002 95
-2.1569021 -0.283196 0.040298 75
-2.147218 -0.28192401 -0.010188 75
-2.1819 -0.28647801 -0.063078001 95
-2.185668 -0.286973 -0.114858 95
-2.162576 -0.283941 -0.164262 75
-2.162014 -0.283867 -0.215654 95
-2.1622059 -0.28389201 -0.267481 95
-2.1903329 -0.28758499 -0.32541701 195
-2.2150781 -0.29083401 -0.384065 95
-2.2228479 -0.29185399 -0.440404 95
-2.2195151 -0.291417 -0.49521899 95
-2.214962 -0.29081899 -0.54977602 95
-2.2601981 -0.296758 -0.62052 95
-2.2186649 -0.29130501 -0.66531098 95
-2.0627749 -0.27083701 -0.66642803 215
-1.9395061 -0.25465199 -0.67304701 215
-1.820627 -0.239044 -0.67618698 195
-1.715531 -0.225245 -0.67955399 215
-1.609516 -0.211325 -0.67758 175
-2.21855 -0.29128999 -1.033118 95
-2.0730281 -0.272183 -1.0209039 175
-1.965632 -0.258082 -1.0230891 155
-1.951207 -0.25618801 -1.076287 175
-2.1637869 -0.278339 0.50184298 75
-2.155113 -0.27722299 0.44779399 75
-2.156857 -0.277448 0.396429 75
-2.175133 -0.27979901 0.34726599 95
-2.1449349 -0.27591401 0.292566 75
-2.174727 -0.279746 0.24413 75
-2.171726 -0.27936 0.19291601 95
-2.1536701 -0.27703801 0.141219 75
-2.1780541 -0.28017399 0.090805002 95
-2.1576359 -0.27754799 0.040298 75
-2.145967 -0.27604699 -0.010095 75
-2.1806631 -0.28051001 -0.062937997 95
-2.1864121 -0.28124899 -0.114858 95
-2.163312 -0.27827799 -0.164262 75
-2.1647151 -0.278458 -0.215933 95
-2.1649001 -0.27848199 -0.26780599 95
-2.18718 -0.28134799 -0.32467601 195
-2.215832 -0.285034 -0.384065 95
-2.2236049 -0.28603399 -0.440404 95
-2.2221899 -0.28585199 -0.49572501 95
-2.213809 -0.28477401 -0.54922497 95
-2.260967 -0.29084 -0.62052 95
-2.2212989 -0.28573701 -0.66595203 95
-2.065341 -0.26567599 -0.66711199 215
-1.942014 -0.24981099 -0.673774 215
-1.8249069 -0.23474699 -0.677728 195
-1.694369 -0.21795499 -0.66979301 235
-1.610064 -0.207111 -0.67758 175
-2.219305 -0.28548101 -1.033118 95
-2.0719819 -0.26653001 -1.0199651 175
-1.96803 -0.253158 -1.024069 155
-1.946752 -0.25042099 -1.073226 175
-2.1587059 -0.27156001 0.500732 75
-2.159795 -0.27169701 0.448443 75
-2.155658 -0.27117601 0.39615101 75
-2.1719639 -0.27322799 0.34680101 95
-2.141746 -0.26942599 0.29219499 75
-2.171541 -0.27317399 0.24385101 75
-2.172498 -0.27329499 0.19291601 95
-2.156419 -0.271272 0.141265 75
-2.174859 -0.273592 0.090805002 95
-2.156419 -0.271272 0.040344998 75
-2.142765 -0.26955399 -0.009908 75
-2.177479 -0.27392101 -0.062659003 95
-2.1694069 -0.27290601 -0.113186 75
-2.1601391 -0.27173999 -0.16379701 75
-2.1615541 -0.271918 -0.215376 95
-2.1637111 -0.27218899 -0.267481 95
-2.1918571 -0.27573001 -0.32541701 195
-2.2127371 -0.278357 -0.38323399 95
-2.226326 -0.28006601 -0.44086501 95
-2.22106 -0.27940401 -0.49521899 95
-2.2107799 -0.27811101 -0.54812199 95
-2.259876 -0.28428701 -0.61992401 95
-2.223968 -0.27976999 -0.666592 95
-2.06794 -0.260142 -0.66779602 215
-1.939007 -0.243922 -0.67231899 215
-1.820062 -0.22895899 -0.67541599 195
-1.716725 -0.21596 -0.67955399 235
-1.608842 -0.202388 -0.67672402 175
-2.2183199 -0.27905899 -1.032221 95
-2.0762219 -0.26118299 -1.021843 175
-1.96527 -0.247226 -1.022109 155
-1.945737 -0.24476901 -1.072206 175
-2.161453 -0.26539299 0.50110197 75
-2.158632 -0.26504701 0.44811901 75
-2.1525221 -0.264296 0.395594 75
-2.174737 -0.26702401 0.34703299 95
-2.1425359 -0.26306999 0.29219499 75
-2.1743219 -0.26697299 0.24399 75
-2.175282 -0.26709101 0.193009 95
-2.1572139 -0.264873 0.141265 75
-2.1756611 -0.267138 0.090805002 95
-2.1572139 -0.264873 0.040344998 75
-2.1395891 -0.26270899 -0.009722 75
-2.178282 -0.26745901 -0.062659003 95
-2.1623011 -0.265497 -0.112443 75
-2.1609349 -0.26532999 -0.16379701 75
-2.1643169 -0.26574501 -0.215654 95
-2.1605909 -0.26528701 -0.26683301 95
-2.1887641 -0.26874599 -0.32467601 195
-2.217437 -0.27226701 -0.384065 95
-2.2271471 -0.27345899 -0.44086501 95
-2.221879 -0.27281201 -0.49521899 95
-2.211596 -0.27155 -0.54812199 95
-2.262605 -0.27781299 -0.62052 95
-2.2210269 -0.272708 -0.66531098 95
-2.0668371 -0.25377601 -0.66711199 215
-1.9434201 -0.23862199 -0.673774 215
-1.81707 -0.22310799 -0.67387402 195
-1.7137311 -0.21042 -0.67792702 235
-1.609436 -0.197614 -0.67672402 175
-2.2191379 -0.27247599 -1.032221 95
-2.0524499 -0.252009 -1.008697 195
-1.969456 -0.24181899 -1.024069 155
-1.946455 -0.238995 -1.072206 175
-2.1544249 -0.258044 0.499621 75
-2.159409 -0.258641 0.44811901 75
-2.1591959 -0.25861499 0.396429 75
-2.173547 -0.26033401 0.34680101 95
-2.1452839 -0.25694901 0.29238001 75
-2.1751039 -0.26052099 0.24399 75
-2.174082 -0.260398 0.19291601 95
-2.1560049 -0.25823301 0.141219 75
-2.174459 -0.260443 0.090805002 95
-2.1540201 -0.25799501 0.040438 75
-2.1443269 -0.256834 -0.009908 75
-2.1751039 -0.26052099 -0.062380001 95
-2.1611021 -0.25884399 -0.112257 75
-2.1617129 -0.258917 -0.16379701 75
-2.1611631 -0.25885099 -0.215097 95
-2.1633279 -0.25911 -0.26715699 95
-2.195406 -0.262952 -0.32578701 195
-2.2162919 -0.26545399 -0.38364899 95
-2.222152 -0.26615599 -0.43948099 95
-2.220757 -0.26598901 -0.494712 95
-2.2123921 -0.26498699 -0.54812199 95
-2.261523 -0.27087101 -0.61992401 95
-2.2237079 -0.26634201 -0.66595203 95
-2.0713129 -0.248089 -0.66847998 215
-1.94412 -0.23285501 -0.673774 215
-1.830551 -0.21925201 -0.67927003 195
-1.712534 -0.205117 -0.67711401 235
-1.613605 -0.193268 -0.67843503 175
-2.216388 -0.26546499 -1.030425 95
-2.0707221 -0.248018 -1.018087 195
-1.970165 -0.235974 -1.024069 155
-1.945447 -0.233014 -1.0711859 175
-2.155093 -0.25240299 0.499621 75
-2.162039 -0.253216 0.448443 75
-2.1598661 -0.25296199 0.396429 75
-2.1722479 -0.254412 0.346569 95
-2.141994 -0.25086799 0.292009 75
-2.1737969 -0.25459301 0.24385101 75
-2.1747561 -0.254706 0.19291601 95
-2.1566739 -0.252588 0.141219 75
-2.173146 -0.25451699 0.090805002 95
-2.1507161 -0.25189 0.04053 75
-2.146976 -0.251452 -0.010002 75
-2.1777611 -0.25505701 -0.062519997 95
-2.1597941 -0.25295299 -0.112071 75
-2.1663301 -0.253719 -0.164262 75
-2.1578989 -0.252731 -0.214541 95
-2.162039 -0.253216 -0.26683301 95
-2.1960869 -0.257204 -0.32578701 195
-2.21698 -0.25965101 -0.38364899 95
-2.2209079 -0.260111 -0.43902001 95
-2.217603 -0.25972399 -0.49369901 95
-2.211169 -0.25896999 -0.547571 95
-2.2622249 -0.26495001 -0.61992401 95
-2.2225161 -0.260299 -0.66531098 95
-2.0700891 -0.242447 -0.66779602 215
-1.942872 -0.227548 -0.67304701 215
-1.827453 -0.21403 -0.677728 195
-1.713065 -0.200633 -0.67711401 235
-1.608719 -0.188412 -0.67586797 175
-2.2170751 -0.259662 -1.030425 95
-2.074872 -0.243007 -1.0199651 195
-1.975971 -0.231424 -1.0270081 155
-1.949468 -0.22832 -1.073226 155
-2.161691 -0.246676 0.500732 75
-2.162781 -0.24680001 0.448443 75
-2.158639 -0.246328 0.39615101 75
-2.1729939 -0.24796601 0.346569 95
-2.144707 -0.244738 0.29219499 75
-2.1765261 -0.24836899 0.24399 75
-2.173517 -0.248025 0.19282299 95
-2.155427 -0.245961 0.14117201 75
-2.173892 -0.248068 0.090805002 95
-2.1594 -0.24641401 0.040344998 75
-2.141758 -0.24440099 -0.009722 75
-2.178508 -0.248595 -0.062519997 95
-2.1644919 -0.246995 -0.112443 75
-2.1611519 -0.24661399 -0.16356499 75
-2.1606071 -0.24655201 -0.214819 95
-2.164742 -0.247024 -0.26715699 95
-2.1987929 -0.25091001 -0.32615799 195
-2.2177401 -0.25307199 -0.38364899 95
-2.2274711 -0.25418201 -0.440404 95
-2.222208 -0.253582 -0.494712 95
-2.2119269 -0.252408 -0.547571 95
-2.259207 -0.25780401 -0.61873299 95
-2.223278 -0.25370401 -0.66531098 95
-2.0707991 -0.236304 -0.66779602 215
-1.94539 -0.221993 -0.673774 215
-1.826246 -0.208397 -0.67695701 195
-1.710022 -0.195135 -0.67548698 235
-1.6110671 -0.183843 -0.67672402 175
-2.205406 -0.25166401 -1.024141 95
-2.079093 -0.23725 -1.021843 195
-1.9749171 -0.225363 -1.026028 155
-1.931336 -0.22038899 -1.062004 135
-2.158464 -0.24020299 0.499991 75
-2.1615 -0.240541 0.44811901 75
-2.1534131 -0.239641 0.395316 75
-2.169729 -0.241457 0.346104 95
-2.1434031 -0.238527 0.292009 75
-2.173245 -0.24184801 0.24371099 75
-2.172215 -0.241734 0.19272999 95
-2.156106 -0.239941 0.14117201 75
-2.174576 -0.24199601 0.090805002 95
-2.154119 -0.23972 0.040484 75
-2.144418 -0.23864 -0.009815 75
-2.1752281 -0.24206901 -0.062240999 95
-2.159236 -0.240289 -0.111885 75
-2.1618321 -0.240578 -0.16356499 75
-2.1612871 -0.240518 -0.214819 95
-2.1654229 -0.240978 -0.26715699 95
-2.1916721 -0.243899 -0.32467601 195
-2.2184379 -0.246878 -0.38364899 95
-2.2204349 -0.2471 -0.438559 95
-2.2190621 -0.24694701 -0.49369901 95
-2.214534 -0.246443 -0.54812199 95
-2.259918 -0.25149399 -0.61873299 95
-2.223978 -0.247494 -0.66531098 95
-2.0639801 -0.229689 -0.66505998 215
-1.947854 -0.216766 -0.67450202 215
-1.823153 -0.202888 -0.67541599 195
-1.717824 -0.191167 -0.67874098 235
-1.593608 -0.17734399 -0.66816801 195
-2.200772 -0.244912 -1.021448 95
-2.0867679 -0.232225 -1.025598 195
-1.975538 -0.21984699 -1.026028 155
-1.918267 -0.21347301 -1.053843 135
-2.1552191 -0.233751 0.49925101 75
-2.1602011 -0.234292 0.44779399 75
-2.1560431 -0.233841 0.395594 75
-2.174345 -0.235825 0.346569 95
-2.142081 -0.232326 0.291823 75
-2.1719279 -0.235563 0.243572 75
-2.160965 -0.234374 0.19217101 75
-2.154779 -0.233703 0.14112601 75
-2.1752441 -0.23592301 0.090805002 95
-2.1567669 -0.23391899 0.040438 75
-2.1470621 -0.232866 -0.009908 75
-2.179862 -0.236424 -0.062519997 95
-2.159899 -0.23425899 -0.111885 75
-2.1624949 -0.23454 -0.16356499 75
-2.1619501 -0.23448101 -0.214819 95
-2.164125 -0.234717 -0.26683301 95
-2.194298 -0.23799001 -0.32504699 195
-2.215229 -0.24026 -0.38281801 95
-2.219182 -0.240688 -0.43809801 95
-2.217819 -0.240541 -0.493193 95
-2.20948 -0.239636 -0.54646897 95
-2.2625101 -0.245388 -0.61932802 95
-2.2227769 -0.241078 -0.664671 95
-2.079561 -0.225545 -0.67053199 215
-1.954008 -0.211928 -0.67668402 215
-1.825547 -0.19799501 -0.67618698 195
-1.714718 -0.185975 -0.67711401 235
-1.6156631 -0.17523199 -0.67843503 195
-2.196116 -0.238187 -1.018755 95
-2.048785 -0.22220699 -1.0049421 215
-1.9726779 -0.213953 -1.024069 155
-1.918855 -0.20811599 -1.053843 135
-2.155863 -0.227732 0.49925101 75
-2.158885 -0.22805101 0.44747001 75
-2.1586571 -0.228027 0.395872 75
-2.1730189 -0.229544 0.34633699 95
-2.144702 -0.22655299 0.292009 75
-2.17853 -0.23012599 0.24399 75
-2.1516769 -0.22729 0.191705 75
-2.1574121 -0.22789501 0.14117201 75
-2.1739049 -0.229638 0.090805002 95
-2.1574121 -0.22789501 0.040438 75
-2.1457169 -0.22666 -0.009815 75
-2.17853 -0.23012599 -0.062380001 95
-2.1605451 -0.22822601 -0.111885 75
-2.1591909 -0.228083 -0.1631 75
-2.1586571 -0.228027 -0.21426199 95
-2.1608469 -0.228258 -0.266184 95
-2.1949539 -0.231861 -0.32504699 195
-2.2120011 -0.23366199 -0.38198599 95
-2.225651 -0.23510399 -0.43948099 95
-2.222331 -0.234753 -0.49420601 95
-2.213964 -0.233869 -0.547571 95
-2.2612879 -0.238868 -0.61873299 95
-2.2215569 -0.234671 -0.66403103 95
-2.0783131 -0.21954 -0.66984802 215
-1.952739 -0.206275 -0.67595702 215
-1.824257 -0.19270299 -0.67541599 195
-1.718865 -0.18156999 -0.67874098 235
-1.612551 -0.17034 -0.67672402 195
-2.2056601 -0.23299199 -1.023244 95
-2.017787 -0.213146 -0.98804098 215
-1.947258 -0.205696 -1.0093729 175
-1.873239 -0.197877 -1.026298 175
-2.162395 -0.221936 0.50036103 75
-2.1595521 -0.221644 0.44747001 75
-2.1573541 -0.22141901 0.395594 75
-2.171715 -0.222893 0.346104 95
-2.147346 -0.220392 0.29219499 75
-2.179203 -0.22366101 0.24399 75
-2.1483669 -0.220496 0.19151799 75
-2.15609 -0.22128899 0.14112601 75
-2.1725869 -0.222982 0.090805002 95
-2.1580789 -0.22149301 0.040438 75
-2.1503551 -0.2207 -0.010002 75
-2.179203 -0.22366101 -0.062380001 95
-2.161212 -0.221815 -0.111885 75
-2.165787 -0.222284 -0.16379701 75
-2.1593239 -0.22162101 -0.21426199 95
-2.165442 -0.222249 -0.26683301 95
-2.201498 -0.225949 -0.32615799 195
-2.2165761 -0.227497 -0.38281801 95
-2.2244029 -0.22830001 -0.43902001 95
-2.223017 -0.228158 -0.49420601 95
-2.2089109 -0.22671001 -0.54591697 95
-2.261986 -0.23215801 -0.61873299 95
-2.222244 -0.22807901 -0.66403103 95
-2.0714769 -0.212605 -0.66711199 215
-1.942223 -0.199339 -0.671592 215
-1.8266571 -0.18747801 -0.67618698 195
-1.721213 -0.17665599 -0.67955399 235
-1.6148469 -0.165739 -0.67758 195
-2.2045629 -0.226264 -1.022346 95
-1.988547 -0.20409299 -0.97207898 215
-1.921842 -0.197247 -0.99467802 195
-1.904621 -0.19548 -1.044661 195
-2.163044 -0.215519 0.50036103 75
-2.1562719 -0.214844 0.44682199 75
-2.1540599 -0.214624 0.395037 75
-2.1723671 -0.21644799 0.346104 95
-2.140064 -0.21323 0.29145199 75
-2.1739011 -0.216601 0.243572 75
-2.151 -0.21431901 0.19161201 75
-2.154747 -0.21469299 0.14108001 75
-2.1752291 -0.21673299 0.090805002 95
-2.1567371 -0.214891 0.040484 75
-2.143048 -0.21352699 -0.009629 75
-2.1758859 -0.21679901 -0.062100999 95
-2.1578979 -0.21500599 -0.111514 75
-2.160506 -0.215266 -0.1631 75
-2.159972 -0.215213 -0.21426199 95
-2.162164 -0.215432 -0.266184 95
-2.19238 -0.21844199 -0.32430601 195
-2.2133479 -0.220531 -0.38198599 95
-2.2270069 -0.221892 -0.43948099 95
-2.2198341 -0.221178 -0.493193 95
-2.2114871 -0.220346 -0.54646897 95
-2.2569661 -0.224877 -0.61694503 95
-2.2229109 -0.22148401 -0.66403103 95
-2.0702291 -0.20627099 -0.66642803 215
-1.9446599 -0.19375999 -0.67231899 215
-1.805169 -0.17986199 -0.66693699 215
-1.714458 -0.17082299 -0.67629999 235
-1.613533 -0.160768 -0.67672402 195
-2.1714351 -0.216355 -1.00529 115
-1.990901 -0.198367 -0.97301799 215
-1.941504 -0.193446 -1.005455 195
-1.930869 -0.192386 -1.0599639 195
-2.155776 -0.209097 0.49888 75
-2.156827 -0.209199 0.44682199 75
-2.1546149 -0.208984 0.395037 75
-2.1749029 -0.210952 0.34633699 95
-2.1445789 -0.208011 0.291823 75
-2.178432 -0.211294 0.24385101 75
-2.149565 -0.20849399 0.19151799 75
-2.155302 -0.209051 0.14108001 75
-2.1757891 -0.21103799 0.090805002 95
-2.1572919 -0.209244 0.040484 75
-2.1436 -0.20791601 -0.009629 75
-2.180418 -0.211487 -0.062380001 95
-2.160435 -0.20954899 -0.111699 75
-2.1630399 -0.209801 -0.163333 75
-2.1565859 -0.20917501 -0.213706 95
-2.1607561 -0.20958 -0.26585999 95
-2.2007689 -0.213461 -0.32578701 195
-2.2178121 -0.215114 -0.38281801 95
-2.2256429 -0.215873 -0.43902001 95
-2.2184801 -0.215179 -0.492686 95
-2.2120559 -0.21455599 -0.54646897 95
-2.261348 -0.219336 -0.618137 95
-2.2197111 -0.215298 -0.66275001 95
-2.0745029 -0.201214 -0.66779602 215
-1.941452 -0.188309 -0.67086399 215
-1.824002 -0.176917 -0.67464501 215
-1.716717 -0.166511 -0.67711401 235
-1.621145 -0.157241 -0.68014699 195
0 0 0 75
-1.993171 -0.193325 -0.973957 215
-1.964565 -0.19055 -1.018191 195
-1.9638979 -0.190486 -1.079347 175
-2.1543951 -0.20289201 0.49851 75
-2.157403 -0.20317499 0.44682199 75
-2.153218 -0.20278101 0.394759 75
-2.173506 -0.20469099 0.346104 95
-2.1471341 -0.202208 0.292009 75
-2.175041 -0.204836 0.243572 75
-2.1501391 -0.202491 0.19151799 75
-2.1578679 -0.203219 0.14112601 75
-2.1763699 -0.204961 0.090805002 95
-2.161849 -0.203594 0.040391002 75
-2.144172 -0.201929 -0.009629 75
-2.1770279 -0.20502301 -0.062100999 95
-2.1649771 -0.203888 -0.112071 75
-2.1636169 -0.20376 -0.163333 75
-2.1630771 -0.20370901 -0.214541 95
-2.1632979 -0.20373 -0.266184 95
-2.195487 -0.206761 -0.32467601 195
-2.2164569 -0.208736 -0.382402 95
-2.218487 -0.20892701 -0.43717599 95
-2.220998 -0.20916399 -0.493193 95
-2.2107329 -0.208197 -0.54591697 95
-2.260051 -0.212842 -0.61754102 95
-2.220304 -0.20909899 -0.66275001 95
-2.075057 -0.19542 -0.66779602 215
-1.940115 -0.182712 -0.67013699 215
-1.791417 -0.168708 -0.66077 235
-1.718995 -0.161887 -0.67792702 235
-1.616179 -0.15220501 -0.67758 195
-2.0142131 -0.18968999 -0.925394 195
-2.027108 -0.19090401 -0.99179602 215
-2.001544 -0.18849701 -1.038764 175
-1.942157 -0.18290401 -1.066085 155
-2.1569099 -0.197053 0.49888 75
-2.1618929 -0.19750901 0.44747001 75
-2.1557479 -0.19694699 0.395037 75
-2.1740689 -0.198621 0.346104 95
-2.143724 -0.195849 0.291637 75
-2.1716311 -0.19839799 0.243293 75
-2.150696 -0.196486 0.19151799 75
-2.158427 -0.197192 0.14112601 75
-2.176934 -0.198883 0.090805002 95
-2.160418 -0.197374 0.040438 75
-2.144727 -0.19594 -0.009629 75
-2.177592 -0.198943 -0.062100999 95
-2.1576059 -0.197117 -0.111328 75
-2.1641779 -0.197717 -0.163333 75
-2.161665 -0.197488 -0.21426199 95
-2.1618929 -0.19750901 -0.26585999 95
-2.194098 -0.200451 -0.32430601 195
-2.2150829 -0.20236801 -0.38198599 95
-2.2229381 -0.203086 -0.43809801 95
-2.21772 -0.202609 -0.49217999 95
-2.2113049 -0.202023 -0.54591697 95
-2.2606361 -0.20653 -0.61754102 95
-2.218992 -0.20272499 -0.66210997 95
-2.077466 -0.189795 -0.66847998 215
-1.9424731 -0.177463 -0.67086399 215
-1.812097 -0.16555201 -0.669249 235
-1.7248991 -0.157585 -0.68036801 235
-1.6129971 -0.14736199 -0.67586797 195
-2.0592301 -0.18812899 -0.947837 195
-2.087424 -0.190705 -1.023721 195
-1.9951169 -0.182272 -1.034845 155
-1.930669 -0.176384 -1.058944 155
-2.1594429 -0.190826 0.49925101 75
-2.1565721 -0.19057199 0.44649699 75
-2.156323 -0.19055 0.395037 75
-2.1766269 -0.19234399 0.34633699 95
-2.1442959 -0.189487 0.291637 75
-2.1741979 -0.19213 0.243432 75
-2.1512699 -0.19010399 0.19151799 75
-2.1609941 -0.190963 0.14117201 75
-2.1755221 -0.192247 0.090805002 95
-2.157011 -0.190611 0.04053 75
-2.15326 -0.19027901 -0.010002 75
-2.1781721 -0.192481 -0.062100999 95
-2.162148 -0.191065 -0.111699 75
-2.1647551 -0.191295 -0.163333 75
-2.1622419 -0.191073 -0.21426199 95
-2.1624689 -0.191093 -0.26585999 95
-2.196641 -0.194113 -0.32467601 195
-2.215673 -0.195795 -0.38198599 95
-2.2196541 -0.19614699 -0.43717599 95
-2.218312 -0.19602799 -0.49217999 95
-2.20998 -0.195292 -0.54536599 95
-2.2574351 -0.199485 -0.61635 95
-2.2214711 -0.196307 -0.66275001 95
-2.0724039 -0.183134 -0.66642803 215
-1.944847 -0.17186201 -0.671592 215
-1.773975 -0.156763 -0.65306097 255
-1.718079 -0.151823 -0.67711401 235
-1.617029 -0.142894 -0.67758 195
-2.082922 -0.184064 -0.95950699 215
-2.0668731 -0.18264601 -1.012453 195
-1.980018 -0.17497 -1.026028 155
-1.934611 -0.170958 -1.060984 155
-2.161958 -0.18458501 0.499621 75
-2.163027 -0.18467601 0.44747001 75
-2.1568789 -0.18415099 0.395037 75
-2.1732299 -0.18554699 0.34587201 95
-2.1448491 -0.18312401 0.291637 75
-2.180722 -0.186187 0.24385101 75
-2.1478429 -0.18337999 0.191332 75
-2.159559 -0.18437999 0.14112601 75
-2.178076 -0.18596099 0.090805002 95
-2.159559 -0.18437999 0.040484 75
-2.143862 -0.18303999 -0.009536 75
-2.180722 -0.186187 -0.062240999 95
-2.16469 -0.184818 -0.111885 75
-2.165313 -0.184871 -0.163333 75
-2.1588521 -0.18432 -0.213706 95
-2.164993 -0.184844 -0.266184 95
-2.1952491 -0.187427 -0.32430601 195
-2.2142949 -0.189053 -0.38157001 95
-2.220226 -0.18956 -0.43717599 95
-2.2208109 -0.18961 -0.492686 95
-2.214381 -0.189061 -0.54646897 95
-2.256115 -0.192624 -0.61575401 95
-2.222044 -0.189715 -0.66275001 95
-2.076683 -0.177304 -0.66779602 215
-1.950917 -0.166567 -0.673774 215
-1.752367 -0.149615 -0.64381099 255
-1.718522 -0.146725 -0.67711401 235
-1.619247 -0.13824899 -0.67843503 195
-2.1653731 -0.18487699 -1.000801 215
-2.0656459 -0.17636199 -1.0115139 195
-1.968367 -0.168056 -1.01917 155
-1.928254 -0.16463199 -1.056903 155
-2.160475 -0.178762 0.49925101 75
-2.161536 -0.17885 0.447146 75
-2.159328 -0.17866699 0.395316 75
-2.175688 -0.180021 0.346104 95
-2.1453209 -0.177508 0.291637 75
-2.1812019 -0.18047699 0.24385101 75
-2.152298 -0.178086 0.19151799 75
-2.1620269 -0.178891 0.14117201 75
-2.1606171 -0.178774 0.090805002 75
-2.1600339 -0.178726 0.040484 75
-2.1503069 -0.177921 -0.009815 75
-2.179213 -0.18031301 -0.062100999 95
-2.1611969 -0.178822 -0.111514 75
-2.1657901 -0.17920201 -0.163333 75
-2.163275 -0.178994 -0.21426199 95
-2.1635029 -0.179013 -0.26585999 95
-2.193773 -0.181517 -0.32393599 195
-2.216733 -0.18341701 -0.38198599 95
-2.2245941 -0.18406799 -0.43809801 95
-2.217443 -0.183476 -0.49167299 95
-2.211036 -0.182946 -0.54536599 95
-2.26232 -0.187189 -0.61754102 95
-2.222533 -0.183897 -0.66275001 95
-2.0752671 -0.171712 -0.66711199 215
-1.9457771 -0.160998 -0.671592 215
-1.75827 -0.145483 -0.64612401 255
-1.738929 -0.143883 -0.68606198 215
-1.6160001 -0.133711 -0.67672402 195
-2.251344 -0.186281 -1.043891 195
-2.0379419 -0.168624 -0.99649101 215
-1.958374 -0.16204 -1.013292 155
-1.90982 -0.158023 -1.045681 155
-2.1609659 -0.172728 0.49925101 75
-2.1620269 -0.172813 0.447146 75
-2.155869 -0.17232101 0.394759 75
-2.174202 -0.173786 0.34587201 95
-2.145808 -0.171517 0.291637 75
-2.1777201 -0.174068 0.243572 75
-2.152787 -0.172075 0.19151799 75
-2.1605251 -0.172693 0.14112601 75
-2.1451581 -0.17146499 0.090805002 75
-2.156539 -0.17237499 0.040576998 75
-2.146812 -0.171597 -0.009629 75
-2.179708 -0.174227 -0.062100999 95
-2.1636729 -0.17294499 -0.111699 75
-2.1662819 -0.173153 -0.163333 75
-2.1637659 -0.172952 -0.21426199 95
-2.1620269 -0.172813 -0.26553601 95
-2.192312 -0.175234 -0.32356501 195
-2.211386 -0.176759 -0.380739 95
-2.2212191 -0.177545 -0.43717599 95
-2.2198761 -0.17743701 -0.49217999 95
-2.207706 -0.17646401 -0.54426301 95
-2.2609301 -0.180719 -0.61694503 95
-2.221149 -0.17753901 -0.66210997 95
-2.075738 -0.165916 -0.66711199 215
-1.957361 -0.156454 -0.67595702 215
-1.775226 -0.14189599 -0.65306097 255
-1.7138259 -0.136988 -0.67467302 215
-1.616367 -0.129198 -0.67672402 195
-2.278578 -0.182129 -1.057356 175
-2.0507269 -0.16391701 -1.003064 215
-1.955343 -0.156293 -1.011333 135
-1.905109 -0.15227801 -1.042621 135
-2.1575501 -0.166014 0.49851 75
-2.1585951 -0.166095 0.44649699 75
-2.1583459 -0.166076 0.395037 75
-2.1747079 -0.167335 0.34587201 95
-2.148293 -0.16530199 0.291823 75
-2.1762371 -0.16745199 0.243432 75
-2.1552801 -0.16584 0.19161201 75
-2.159034 -0.16612899 0.14108001 75
-2.1476519 -0.165253 0.090805002 75
-2.163022 -0.166435 0.040438 75
-2.1473119 -0.165227 -0.009629 75
-2.1802161 -0.167758 -0.062100999 95
-2.1621909 -0.166372 -0.111514 75
-2.1648049 -0.166573 -0.1631 75
-2.160321 -0.166228 -0.213706 95
-2.1644981 -0.166549 -0.26585999 95
-2.194782 -0.168879 -0.32393599 195
-2.213851 -0.17034701 -0.38115501 95
-2.223676 -0.171103 -0.437637 95
-2.220392 -0.17084999 -0.49217999 95
-2.2120531 -0.17020801 -0.54536599 95
-2.259553 -0.17386299 -0.61635 95
-2.2216661 -0.170948 -0.66210997 95
-2.0762219 -0.159757 -0.66711199 215
-1.950387 -0.15007401 -0.67304701 215
-1.8290009 -0.140734 -0.67541599 235
-1.723334 -0.132603 -0.67874098 215
-1.616743 -0.124402 -0.67672402 195
-2.2612889 -0.173997 -1.0483789 155
-2.0564871 -0.15823799 -1.005881 215
-1.936674 -0.149019 -1.000556 135
-1.905553 -0.146624 -1.042621 155
-2.159965 -0.160134 0.49888 75
-2.15905 -0.16006599 0.44649699 75
-2.156826 -0.15990099 0.394759 75
-2.1751671 -0.16126101 0.34587201 95
-2.14676 -0.159155 0.291637 75
-2.180676 -0.16167 0.24371099 75
-2.157727 -0.159968 0.191705 75
-2.161484 -0.160247 0.14112601 75
-2.150099 -0.159403 0.090805002 75
-2.1634779 -0.160395 0.040438 75
-2.1497569 -0.15937699 -0.009722 75
-2.1786859 -0.161522 -0.061962001 95
-2.1606619 -0.16018599 -0.111328 75
-2.165262 -0.16052701 -0.1631 75
-2.1627519 -0.16034099 -0.213984 95
-2.162987 -0.160358 -0.26553601 95
-2.197206 -0.16289499 -0.32430601 195
-2.214318 -0.16416401 -0.38115501 95
-2.220264 -0.16460399 -0.43671501 95
-2.220861 -0.16464899 -0.49217999 95
-2.214437 -0.16417199 -0.54591697 95
-2.26003 -0.16755299 -0.61635 95
-2.2221351 -0.16474301 -0.66210997 95
-2.0804081 -0.154236 -0.66847998 215
-1.950798 -0.144627 -0.67304701 215
-1.84411 -0.13671701 -0.68158299 215
-1.721875 -0.127655 -0.67792702 215
-1.6188869 -0.12002 -0.67758 195
-2.2350309 -0.16569901 -1.034914 135
-2.078053 -0.154061 -1.017148 195
-1.9405611 -0.143868 -1.002516 135
-1.924826 -0.142701 -1.053843 155
-2.1623909 -0.153864 0.49925101 75
-2.1595161 -0.15366 0.44649699 75
-2.1572909 -0.153501 0.394759 75
-2.173655 -0.15466601 0.34564 95
-2.145237 -0.15264399 0.29145199 75
-2.1811459 -0.15519901 0.24371099 75
-2.154207 -0.153282 0.19151799 75
-2.163944 -0.153975 0.14117201 75
-2.1465731 -0.152739 0.090805002 75
-2.163944 -0.153975 0.040438 75
-2.1502211 -0.152998 -0.009722 75
-2.183136 -0.15534 -0.062240999 95
-2.1631141 -0.153916 -0.111514 75
-2.169692 -0.154384 -0.16356499 75
-2.161242 -0.153782 -0.213706 95
-2.165421 -0.15408 -0.26585999 95
-2.195719 -0.15623599 -0.32393599 195
-2.2128439 -0.157454 -0.380739 95
-2.2207429 -0.158016 -0.43671501 95
-2.2194099 -0.157921 -0.49167299 95
-2.2072439 -0.157056 -0.54371202 95
-2.2605169 -0.16084599 -0.61635 95
-2.222614 -0.158149 -0.66210997 95
-2.080857 -0.148063 -0.66847998 215
-1.94936 -0.138706 -0.67231899 215
-1.82794 -0.13006601 -0.67464501 215
-1.738649 -0.123713 -0.68524802 195
-1.619236 -0.115216 -0.67758 195
-2.2230339 -0.158179 -1.02863 135
-2.071455 -0.147394 -1.013392 195
-1.93924 -0.137986 -1.001536 135
-1.8823431 -0.133937 -1.028338 175
-2.156904 -0.147799 0.49814001 75
-2.15991 -0.14800499 0.44649699 75
-2.157686 -0.147853 0.394759 75
-2.174052 -0.148974 0.34564 95
-2.1476159 -0.147163 0.291637 75
-2.179554 -0.149351 0.243572 75
-2.1545999 -0.147642 0.19151799 75
-2.1603501 -0.148036 0.14108001 75
-2.154947 -0.14766499 0.090805002 75
-2.16434 -0.14830901 0.040438 75
-2.1466279 -0.14709499 -0.009536 75
-2.181545 -0.149488 -0.062100999 95
-2.1635089 -0.148252 -0.111514 75
-2.1641431 -0.148295 -0.16286799 75
-2.1655891 -0.148395 -0.21426199 95
-2.165817 -0.14841001 -0.26585999 95
-2.194159 -0.150352 -0.32356501 195
-2.213249 -0.15166 -0.380739 95
-2.219207 -0.152069 -0.43625301 95
-2.217885 -0.151978 -0.49116701 95
-2.2153201 -0.151802 -0.54591697 95
-2.2571211 -0.154667 -0.61515802 95
-2.2230201 -0.15233 -0.66210997 95
-2.0812371 -0.14261401 -0.66847998 215
-1.949717 -0.13360199 -0.67231899 215
-1.8337981 -0.125659 -0.67695701 215
-1.748081 -0.119785 -0.68931597 175
-1.614122 -0.110606 -0.67501301 195
-2.214525 -0.151748 -1.024141 135
-2.0700719 -0.141849 -1.012453 195
-1.95525 -0.133981 -1.010353 155
-1.889552 -0.12947901 -1.032419 155
-2.1612549 -0.141656 0.49888 75
-2.1603401 -0.141596 0.44649699 75
-2.1600909 -0.14158 0.395037 75
-2.174484 -0.14252301 0.34564 95
-2.1480429 -0.14079 0.291637 75
-2.1779971 -0.14275301 0.243432 75
-2.1590159 -0.141509 0.191705 75
-2.1587851 -0.14149401 0.14103299 75
-2.1493881 -0.14087801 0.090805002 75
-2.162775 -0.141756 0.040484 75
-2.1490481 -0.140856 -0.009629 75
-2.1819789 -0.143014 -0.062100999 95
-2.16394 -0.14183199 -0.111514 75
-2.164573 -0.141874 -0.16286799 75
-2.1640439 -0.141839 -0.213984 95
-2.164279 -0.141854 -0.26553601 95
-2.1926351 -0.143713 -0.32319501 195
-2.2117369 -0.14496499 -0.38032299 95
-2.221591 -0.145611 -0.43671501 95
-2.218327 -0.14539699 -0.49116701 95
-2.210005 -0.144851 -0.54426301 95
-2.259475 -0.148094 -0.61575401 95
-2.2083371 -0.144742 -0.65698802 75
-2.0872769 -0.13680699 -0.67053199 215
-1.953823 -0.12806 -0.673774 215
-1.834163 -0.120217 -0.67695701 215
-1.741136 -0.11412 -0.68606198 155
-1.621658 -0.106289 -0.67843503 195
-2.216749 -0.145293 -1.025039 115
-2.0493391 -0.134321 -1.001186 215
-1.967818 -0.128978 -1.017211 155
-1.883062 -0.123422 -1.028338 155
-2.157743 -0.13499799 0.49814001 75
-2.156811 -0.134939 0.445849 75
-2.158525 -0.13504601 0.394759 75
-2.1748979 -0.136071 0.34564 95
-2.1484511 -0.134416 0.291637 75
-2.1843851 -0.136664 0.24385101 75
-2.1554389 -0.13485301 0.19151799 75
-2.161191 -0.135213 0.14108001 75
-2.1478 -0.13437501 0.090805002 75
-2.161191 -0.135213 0.04053 75
-2.149457 -0.134479 -0.009629 75
-2.178411 -0.136291 -0.061822001 95
-2.164351 -0.13541099 -0.111514 75
-2.1649849 -0.135451 -0.16286799 75
-2.162478 -0.13529401 -0.213706 95
-2.1666601 -0.135555 -0.26585999 95
-2.195013 -0.137329 -0.32356501 195
-2.2160621 -0.13864601 -0.38115501 95
-2.218128 -0.13877501 -0.435792 95
-2.2187481 -0.138814 -0.49116701 95
-2.2104249 -0.138294 -0.54426301 95
-2.2599039 -0.141389 -0.61575401 95
-2.2011919 -0.137716 -0.65442699 75
-2.082047 -0.130262 -0.66847998 215
-1.952335 -0.122146 -0.67304701 215
-1.830827 -0.114544 -0.67541599 215
-1.732349 -0.108383 -0.68199497 135
-1.618358 -0.101251 -0.67672402 195
-2.2243061 -0.139162 -1.02863 115
-2.0338659 -0.12724701 -0.99273503 235
-1.980374 -0.123901 -1.024069 155
-1.895438 -0.118587 -1.03548 155
-2.1600511 -0.129466 0.49851 75
-2.161097 -0.129528 0.44649699 75
-2.1608479 -0.129513 0.395037 75
-2.1772289 -0.130495 0.34587201 95
-2.1487961 -0.128791 0.291637 75
-2.180752 -0.130706 0.243572 75
-2.1557839 -0.12921 0.19151799 75
-2.163533 -0.129674 0.14112601 75
-2.152138 -0.12899099 0.090805002 75
-2.163533 -0.129674 0.040484 75
-2.1478069 -0.128732 -0.009536 75
-2.1787601 -0.130587 -0.061822001 95
-2.16271 -0.12962499 -0.111328 75
-2.1692979 -0.13001999 -0.163333 75
-2.1648021 -0.12975 -0.213984 95
-2.168977 -0.13000099 -0.266184 95
-2.1894791 -0.13123 -0.32245401 195
-2.212512 -0.13260999 -0.38032299 95
-2.220427 -0.133084 -0.43625301 95
-2.2171731 -0.132889 -0.49066001 95
-2.2088599 -0.13239101 -0.54371202 95
-2.2583611 -0.13535801 -0.61515802 95
-2.1920879 -0.131386 -0.65122598 75
-2.0805049 -0.124698 -0.66779602 215
-1.950788 -0.116923 -0.67231899 215
-1.832963 -0.109861 -0.67618698 215
-1.721684 -0.103192 -0.67711401 135
-1.62764 -0.097554997 -0.68100202 195
-2.2210939 -0.13312399 -1.026834 95
-2.0676839 -0.12393 -1.0105751 235
-1.985913 -0.119029 -1.0270081 155
-1.904328 -0.114139 -1.040581 155
-2.160404 -0.123433 0.49851 75
-2.1634209 -0.123606 0.44682199 75
-2.1572471 -0.123253 0.394481 75
-2.179569 -0.124528 0.346104 95
-2.149147 -0.12279 0.291637 75
-2.179116 -0.124502 0.243432 75
-2.156137 -0.123189 0.19151799 75
-2.1578979 -0.12329 0.14098699 75
-2.1504929 -0.122867 0.090805002 75
-2.161891 -0.123518 0.04053 75
-2.152148 -0.122961 -0.009722 75
-2.179116 -0.124502 -0.061822001 95
-2.1650519 -0.123699 -0.111514 75
-2.1716361 -0.124075 -0.16356499 75
-2.1631789 -0.123592 -0.213706 95
-2.165391 -0.123718 -0.26553601 95
-2.197686 -0.125563 -0.32393599 195
-2.2148271 -0.126543 -0.380739 95
-2.222733 -0.126994 -0.43671501 95
-2.217535 -0.126697 -0.49066001 95
-2.2092221 -0.126222 -0.54371202 95
-2.2587299 -0.129051 -0.61515802 95
-2.198122 -0.125588 -0.65314698 75
-2.078968 -0.11878 -0.66711199 215
-1.9436671 -0.11105 -0.66940999 215
-1.829578 -0.104532 -0.67464501 215
-1.690956 -0.096611999 -0.66328502 115
-1.63693 -0.093525 -0.68528098 175
-2.2125361 -0.126412 -1.022346 95
-2.1068089 -0.120371 -1.031232 215
-1.989719 -0.113681 -1.028967 155
-1.938988 -0.110783 -1.060984 155
-2.162744 -0.116751 0.49888 75
-2.163799 -0.116808 0.44682199 75
-2.165534 -0.116902 0.395594 75
-2.1779649 -0.117573 0.34587201 95
-2.1435571 -0.115716 0.29108 75
-2.181489 -0.117763 0.243572 75
-2.156513 -0.116415 0.19151799 75
-2.1622679 -0.116726 0.14108001 75
-2.1568601 -0.116434 0.090805002 75
-2.1622679 -0.116726 0.04053 75
-2.1485331 -0.115984 -0.009536 75
-2.183481 -0.117871 -0.062100999 95
-2.1654301 -0.116896 -0.111514 75
-2.1700311 -0.117145 -0.163333 75
-2.165534 -0.116902 -0.213984 95
-2.163799 -0.116808 -0.265212 95
-2.19807 -0.118658 -0.32393599 195
-2.2171669 -0.119689 -0.38115501 95
-2.22312 -0.120011 -0.43671501 95
-2.2198541 -0.119834 -0.49116701 95
-2.2096069 -0.119281 -0.54371202 95
-2.259125 -0.121954 -0.61515802 95
-2.194721 -0.118478 -0.65186602 75
-2.077455 -0.112147 -0.66642803 215
-1.951447 -0.105345 -0.67231899 215
-1.83174 -0.098883003 -0.67541599 215
-1.6894259 -0.091200002 -0.662471 115
-1.615555 -0.087213002 -0.67501301 175
-2.209353 -0.119268 -1.02055 95
-2.1089399 -0.113847 -1.032171 195
-1.986585 -0.107242 -1.0270081 155
-1.939326 -0.104691 -1.060984 155
-2.1571729 -0.11041 0.497769 75
-2.1660869 -0.110866 0.447146 75
-2.1539841 -0.110247 0.393924 75
-2.1743181 -0.111288 0.34540701 95
-2.149838 -0.110035 0.291637 75
-2.179817 -0.111569 0.243432 75
-2.154835 -0.11029 0.191425 75
-2.162586 -0.110687 0.14108001 75
-2.1511841 -0.110104 0.090805002 75
-2.162586 -0.110687 0.04053 75
-2.1508441 -0.110086 -0.009629 75
-2.1838019 -0.111773 -0.062100999 95
-2.1657479 -0.110849 -0.111514 75
-2.1703501 -0.111085 -0.163333 75
-2.1638739 -0.110753 -0.213706 95
-2.1641159 -0.110765 -0.265212 95
-2.1983919 -0.11252 -0.32393599 195
-2.2135849 -0.113297 -0.38032299 95
-2.2195599 -0.113603 -0.435792 95
-2.216316 -0.113437 -0.490154 95
-2.2080121 -0.113012 -0.54316097 95
-2.25755 -0.115548 -0.61456198 95
-2.193151 -0.112252 -0.65122598 75
-2.0496061 -0.104905 -0.65616697 235
-1.949874 -0.099799998 -0.671592 215
-1.837538 -0.094049998 -0.677728 215
-1.68785 -0.086388998 -0.66165799 115
-1.617597 -0.082792997 -0.67586797 175
-2.211462 -0.113189 -1.021448 95
-2.0986681 -0.107416 -1.0265369 195
-1.9955831 -0.102139 -1.031906 155
-1.910405 -0.097779997 -1.043641 195
-2.1594169 -0.104858 0.49814001 75
-2.1624279 -0.105004 0.44649699 75
-2.156244 -0.104703 0.39420199 75
-2.1746011 -0.105595 0.34540701 95
-2.1461411 -0.104213 0.29126599 75
-2.1781089 -0.105765 0.243293 75
-2.159107 -0.104842 0.19161201 75
-2.158874 -0.104831 0.14098699 75
-2.1514649 -0.104471 0.090805002 75
-2.166862 -0.105219 0.040438 75
-2.15312 -0.104552 -0.009722 75
-2.18608 -0.106152 -0.062240999 95
-2.1660309 -0.105179 -0.111514 75
-2.1706331 -0.105402 -0.163333 75
-2.1641569 -0.105088 -0.213706 95
-2.1663699 -0.105195 -0.26553601 95
-2.198679 -0.106764 -0.32393599 195
-2.2138741 -0.107502 -0.38032299 95
-2.2217929 -0.107886 -0.43625301 95
-2.218538 -0.107728 -0.49066001 95
-2.2102201 -0.107324 -0.54371202 95
-2.2597511 -0.10973 -0.61515802 95
-2.1934381 -0.10651 -0.65122598 75
-2.0066979 -0.097442001 -0.64043403 255
-1.944546 -0.094424002 -0.66940999 215
-1.837778 -0.089239001 -0.677728 215
-1.686245 -0.081881002 -0.66084403 115
-1.619614 -0.078645997 -0.67672402 175
-2.2099659 -0.107312 -1.02055 95
-2.1024699 -0.102092 -1.028415 195
-1.9836529 -0.096322998 -1.025048 155
-1.965637 -0.095448002 -1.076287 195
-2.155792 -0.098270997 0.497399 75
-2.160758 -0.098497003 0.44617301 75
-2.1585231 -0.098394997 0.394481 75
-2.1749051 -0.099142 0.34540701 95
-2.14644 -0.097845003 0.29126599 75
-2.1784129 -0.099302001 0.243293 75
-2.155417 -0.098254003 0.191425 75
-2.1611731 -0.098516002 0.14103299 75
-2.1497681 -0.097995996 0.090805002 75
-2.165168 -0.098697998 0.040484 75
-2.14943 -0.097980998 -0.009536 75
-2.182399 -0.099483997 -0.061962001 95
-2.162354 -0.098569997 -0.111142 75
-2.1709361 -0.098961003 -0.163333 75
-2.164459 -0.098665997 -0.213706 95
-2.1666729 -0.098766997 -0.26553601 95
-2.202913 -0.100419 -0.32467601 195
-2.1946399 -0.100042 -0.376165 95
-2.189054 -0.099786997 -0.42841399 95
-2.214982 -0.100969 -0.489647 95
-2.2086079 -0.100679 -0.54316097 95
-2.2562521 -0.10285 -0.613967 95
-2.1918509 -0.099914998 -0.65058601 75
-2.0182431 -0.092000999 -0.64453799 255
-1.946678 -0.088739 -0.67013699 215
-1.826974 -0.083282001 -0.67310297 215
-1.7102081 -0.077959001 -0.67141902 135
-1.610811 -0.073427998 -0.67244601 175
-2.210274 -0.100755 -1.02055 95
-2.0992351 -0.095693 -1.0265369 195
-1.982188 -0.090356998 -1.024069 155
-1.959038 -0.089302003 -1.072206 195
-2.1580379 -0.091958001 0.497769 75
-2.161041 -0.092086002 0.44617301 75
-2.1588061 -0.091991 0.394481 75
-2.17519 -0.092689 0.34540701 95
-2.1507001 -0.091645002 0.291637 75
-2.180691 -0.092923 0.243432 75
-2.1596911 -0.092027999 0.19161201 75
-2.1614561 -0.092104003 0.14103299 75
-2.1540451 -0.091788001 0.090805002 75
-2.1634531 -0.092188999 0.04053 75
-2.155699 -0.091858 -0.009815 75
-2.1826849 -0.093007997 -0.061962001 95
